ply
format ascii 1.0
element vertex 1732
property float x
property float y
property float z
end_header
0.026750 0.092107 0.045612
-0.025500 0.093323 0.046164
0.025750 0.093309 0.045973
0.026500 0.093268 0.045401
-0.025250 0.093973 0.045401
-0.024375 0.094353 0.045783
0.025000 0.094724 0.046038
0.025750 0.094277 0.045707
-0.022750 0.095402 0.045657
0.024500 0.095200 0.046123
0.025250 0.095393 0.045530
-0.022000 0.096090 0.045403
-0.021250 0.096121 0.045848
0.023750 0.096143 0.046166
0.024750 0.096108 0.045657
-0.020250 0.096795 0.045403
-0.019750 0.096831 0.045912
-0.018500 0.097510 0.045531
0.022750 0.097553 0.046167
0.023625 0.097179 0.045849
0.024250 0.096813 0.045658
-0.016750 0.098250 0.046041
0.022000 0.098258 0.046168
0.022750 0.098233 0.045786
0.023250 0.098215 0.045532
-0.015000 0.098929 0.045659
-0.014500 0.098972 0.046295
-0.013250 0.099626 0.045533
-0.012750 0.099660 0.046041
0.020667 0.099436 0.046211
0.021750 0.099363 0.045812
0.022500 0.098929 0.045659
-0.010000 0.100340 0.045660
0.002000 0.100382 0.046296
0.002500 0.100382 0.046296
0.003750 0.100382 0.046296
0.019000 0.100382 0.046296
0.019750 0.100373 0.046169
0.020750 0.100344 0.045724
0.021500 0.100323 0.045406
0.004000 0.101037 0.045534
0.004875 0.101398 0.045661
0.005500 0.101083 0.046233
0.018500 0.101083 0.046233
0.019500 0.101062 0.045915
0.020250 0.101037 0.045534
0.005750 0.101763 0.045852
0.006688 0.102296 0.045916
0.007750 0.102489 0.046171
0.008250 0.102497 0.046298
0.016500 0.102493 0.046234
0.017625 0.102132 0.046107
0.018625 0.102104 0.045662
0.019500 0.101743 0.045534
0.007750 0.103150 0.045472
0.008750 0.103170 0.045790
0.009750 0.103190 0.046108
0.013750 0.103202 0.046298
0.014750 0.103198 0.046235
0.015750 0.103182 0.045980
0.016750 0.103162 0.045662
0.017500 0.103145 0.045408
0.009750 0.103851 0.045409
0.010500 0.103863 0.045599
0.011500 0.103871 0.045727
0.012500 0.103871 0.045727
0.013500 0.103871 0.045727
0.014750 0.103859 0.045536
0.015750 0.103851 0.045409
-0.080250 0.111622 0.045605
-0.079250 0.111644 0.045986
-0.078500 0.110914 0.045541
-0.077250 0.110921 0.045668
-0.076250 0.110921 0.045668
-0.075500 0.110906 0.045414
-0.074750 0.110906 0.045414
-0.072250 0.110950 0.046176
-0.083250 0.112318 0.045415
-0.082500 0.112318 0.045415
-0.081250 0.112332 0.045669
-0.080250 0.112353 0.046050
-0.079750 0.112360 0.046177
-0.086250 0.113736 0.045543
-0.085000 0.113023 0.045415
-0.084250 0.113051 0.045924
-0.083500 0.113065 0.046178
-0.081250 0.113065 0.046178
-0.080500 0.113065 0.046178
-0.067000 0.113030 0.045542
-0.087000 0.114441 0.045543
-0.086250 0.114469 0.046052
-0.085500 0.113760 0.045988
-0.066250 0.113749 0.045797
-0.087750 0.115140 0.045417
-0.087250 0.115167 0.045925
-0.086750 0.115180 0.046179
-0.088333 0.116335 0.045799
-0.064375 0.116205 0.045545
-0.089000 0.117276 0.045800
-0.088500 0.117295 0.046181
-0.063500 0.117256 0.045418
-0.089375 0.118334 0.045800
-0.063250 0.117968 0.045546
-0.089750 0.119392 0.045801
-0.090000 0.120091 0.045675
-0.090125 0.121146 0.045612
-0.089750 0.120815 0.046056
-0.090250 0.122201 0.045549
-0.089750 0.122219 0.045930
-0.062750 0.122195 0.045422
-0.090000 0.122913 0.045677
-0.089625 0.123280 0.045930
-0.063125 0.123284 0.045993
-0.062750 0.123614 0.045421
-0.089500 0.124343 0.045801
-0.063250 0.124347 0.045864
-0.089500 0.125051 0.045673
-0.063250 0.125062 0.045927
-0.089250 0.125997 0.045586
-0.088750 0.126481 0.045797
-0.063625 0.126123 0.045734
-0.088500 0.127199 0.045922
-0.064000 0.127194 0.045796
-0.088125 0.128262 0.045793
-0.065000 0.128629 0.046047
-0.064250 0.127901 0.045667
-0.087750 0.129331 0.045791
-0.065250 0.129326 0.045664
-0.087500 0.130044 0.045790
-0.066000 0.130054 0.046044
-0.065500 0.130028 0.045409
-0.087750 0.130741 0.045408
-0.087250 0.130772 0.046170
-0.066375 0.131110 0.045724
-0.087250 0.132181 0.045786
-0.067250 0.132201 0.046294
-0.066750 0.132171 0.045532
-0.087000 0.132904 0.046039
-0.086750 0.133611 0.045910
-0.067125 0.133245 0.045657
-0.086500 0.134319 0.045782
-0.067500 0.134324 0.045909
-0.086250 0.135031 0.045780
-0.067500 0.135263 0.045611
-0.086000 0.135739 0.045652
-0.085500 0.136224 0.045905
-0.068125 0.136117 0.046223
-0.067750 0.136452 0.045651
-0.085000 0.137173 0.045903
-0.084500 0.137187 0.046284
-0.068250 0.137176 0.045967
-0.084333 0.138118 0.045732
-0.083500 0.138603 0.046028
-0.068250 0.138352 0.045647
-0.083250 0.139302 0.045645
-0.082750 0.139315 0.046026
-0.069250 0.139324 0.046280
-0.068500 0.139300 0.045582
-0.082250 0.140021 0.045834
-0.081750 0.140727 0.045642
-0.069250 0.140261 0.045897
-0.068625 0.140363 0.045389
-0.081125 0.141088 0.045769
-0.080250 0.141454 0.046086
-0.071000 0.141460 0.046276
-0.070125 0.141097 0.046055
-0.069500 0.141436 0.045514
-0.080250 0.142145 0.045386
-0.079500 0.142161 0.045894
-0.078750 0.142173 0.046275
-0.072250 0.142173 0.046275
-0.071500 0.142167 0.046084
-0.070250 0.142150 0.045555
-0.079000 0.142861 0.045511
-0.078250 0.142869 0.045765
-0.077125 0.143223 0.045701
-0.076250 0.143115 0.046019
-0.075375 0.143229 0.045892
-0.074375 0.143230 0.045923
-0.073250 0.143298 0.045790
-0.072250 0.143104 0.045680
-0.071250 0.142863 0.045575
-0.058250 0.037160 0.046463
-0.057250 0.037167 0.046526
-0.056250 0.037180 0.046653
-0.055250 0.037187 0.046716
-0.054250 0.037180 0.046653
-0.053250 0.037187 0.046716
-0.052250 0.037180 0.046653
-0.051250 0.037153 0.046399
-0.004500 0.037208 0.046907
-0.002500 0.037153 0.046399
-0.059000 0.038565 0.046395
-0.058375 0.038242 0.046682
-0.057375 0.038266 0.046904
-0.056375 0.038286 0.047094
-0.055375 0.038293 0.047157
-0.054375 0.038290 0.047126
-0.053375 0.038276 0.046999
-0.052375 0.038259 0.046840
-0.051375 0.038225 0.046523
-0.050750 0.037859 0.046397
-0.036000 0.038565 0.046395
-0.035500 0.038632 0.047029
-0.002250 0.037954 0.047285
-0.001375 0.038286 0.047094
-0.000250 0.038185 0.046802
0.000750 0.038352 0.046607
0.001375 0.038219 0.046459
-0.058500 0.039284 0.046520
-0.057500 0.039318 0.046837
-0.056500 0.039345 0.047091
-0.055500 0.039351 0.047154
-0.054500 0.039351 0.047154
-0.053500 0.039345 0.047091
-0.052500 0.039318 0.046837
-0.051750 0.039284 0.046520
-0.001500 0.039358 0.047217
-0.000250 0.039324 0.046900
0.000750 0.039297 0.046647
0.001500 0.039277 0.046456
-0.058250 0.039983 0.046454
-0.057375 0.040356 0.046643
-0.056375 0.040376 0.046834
-0.055375 0.040386 0.046929
-0.054375 0.040383 0.046897
-0.053375 0.040369 0.046770
-0.052375 0.040350 0.046580
-0.051500 0.039977 0.046391
-0.035500 0.039977 0.046391
-0.001250 0.040063 0.047215
-0.000125 0.040383 0.046897
0.000750 0.040239 0.046644
0.001625 0.040336 0.046453
0.002250 0.040682 0.046389
-0.056250 0.041402 0.046514
-0.055250 0.041408 0.046577
-0.054250 0.041408 0.046577
-0.053250 0.041388 0.046387
-0.035250 0.040762 0.047150
-0.001250 0.041232 0.047148
-0.000417 0.041206 0.046895
0.000750 0.041415 0.046640
0.001750 0.041395 0.046450
-0.001500 0.042166 0.047082
-0.000250 0.042129 0.046723
0.000750 0.042094 0.046385
0.001250 0.042094 0.046385
-0.034375 0.043199 0.046825
-0.003250 0.043597 0.047268
-0.002375 0.043228 0.047111
-0.001375 0.043189 0.046730
-0.000417 0.043049 0.046509
-0.033500 0.044302 0.047266
-0.004000 0.044302 0.047266
-0.003250 0.044270 0.046949
-0.002250 0.044238 0.046632
-0.001250 0.044212 0.046378
-0.032500 0.045649 0.046628
-0.006250 0.045707 0.047198
-0.005250 0.045465 0.047136
-0.004375 0.045332 0.046977
-0.003375 0.045316 0.046819
-0.002375 0.045306 0.046724
-0.001375 0.045306 0.046724
-0.000250 0.045226 0.046629
0.000625 0.045315 0.046819
0.001500 0.044918 0.046376
0.002500 0.044931 0.046503
0.003750 0.044956 0.046757
0.004750 0.044982 0.047010
0.005500 0.044982 0.047010
0.006500 0.044950 0.046693
0.008750 0.045656 0.046691
-0.031750 0.046330 0.046372
0.010500 0.046399 0.047069
-0.030500 0.047086 0.046877
0.011000 0.047111 0.047131
-0.029750 0.047742 0.046368
-0.029250 0.047829 0.047255
-0.028500 0.048522 0.047126
0.011667 0.048047 0.047085
0.012583 0.048241 0.046662
-0.027500 0.049209 0.046934
-0.018250 0.049236 0.047209
-0.017250 0.049240 0.047251
0.012750 0.049240 0.047251
0.013500 0.049184 0.046681
-0.026000 0.049872 0.046488
-0.025250 0.049884 0.046615
-0.024250 0.049896 0.046742
-0.023250 0.049914 0.046932
-0.022250 0.049878 0.046552
-0.021250 0.049872 0.046488
-0.020250 0.049859 0.046362
-0.019250 0.050115 0.046572
-0.018250 0.050334 0.046893
-0.017250 0.049933 0.047122
0.013750 0.049927 0.047059
0.014687 0.050419 0.046677
-0.019250 0.051295 0.046611
-0.018500 0.051356 0.047245
0.015000 0.051344 0.047118
0.015750 0.051295 0.046611
-0.020000 0.052707 0.046607
-0.019500 0.052025 0.046862
0.015750 0.052049 0.047116
0.016500 0.052019 0.046799
0.017667 0.052232 0.046566
0.018750 0.052713 0.046670
0.019500 0.052683 0.046353
-0.020250 0.053419 0.046735
-0.019625 0.053117 0.047241
0.016750 0.052766 0.047240
0.017500 0.052743 0.046987
0.018750 0.053467 0.047242
0.019500 0.053437 0.046925
0.020250 0.053395 0.046481
-0.020250 0.054131 0.046863
0.020000 0.054155 0.047116
0.020500 0.054131 0.046863
-0.021000 0.055484 0.046358
-0.020500 0.055061 0.046822
0.020875 0.055205 0.047118
0.021375 0.055152 0.046548
-0.020750 0.056220 0.046740
0.021500 0.056244 0.046993
-0.021125 0.057241 0.046425
-0.020625 0.057305 0.047122
0.021875 0.057285 0.046900
-0.021000 0.058332 0.046870
0.022000 0.058356 0.047124
0.022500 0.058309 0.046617
-0.021125 0.059360 0.046619
-0.020750 0.059067 0.047252
0.022250 0.059044 0.046998
0.022750 0.059473 0.046577
-0.021250 0.060399 0.046494
-0.020750 0.060445 0.047001
0.022250 0.060456 0.047128
0.022750 0.060422 0.046747
-0.021000 0.061122 0.046749
0.022750 0.061122 0.046749
-0.021250 0.062285 0.046708
0.022125 0.062206 0.047131
0.022750 0.062289 0.046751
-0.021250 0.063257 0.047133
0.022000 0.063240 0.046943
0.022750 0.063200 0.046499
-0.021750 0.064646 0.047009
-0.021500 0.063934 0.046881
0.021750 0.064359 0.046932
0.022500 0.063900 0.046500
-0.022250 0.065312 0.046629
0.021750 0.065335 0.046883
-0.023000 0.066691 0.046378
-0.022500 0.066024 0.046758
0.022000 0.066253 0.046716
-0.022500 0.066768 0.047266
0.022250 0.067435 0.046887
0.022500 0.068135 0.046888
0.022875 0.069213 0.047208
0.023375 0.069153 0.046509
0.023750 0.070236 0.046892
0.024000 0.070936 0.046893
0.024250 0.071647 0.047022
-0.024500 0.072369 0.047277
0.024500 0.072347 0.047023
-0.024750 0.073058 0.047151
0.024750 0.073048 0.047024
-0.025125 0.074103 0.047090
0.025000 0.073748 0.047026
0.025250 0.074448 0.047027
-0.026000 0.075095 0.046393
-0.025500 0.075159 0.047155
0.025500 0.075159 0.047155
-0.026250 0.076298 0.046818
-0.025750 0.075870 0.047284
0.025875 0.076162 0.046585
-0.026500 0.077244 0.046968
0.026250 0.077217 0.046651
-0.027125 0.078252 0.046462
0.026250 0.078659 0.047162
0.026625 0.078263 0.046589
-0.027500 0.079308 0.046527
0.026500 0.079329 0.046782
-0.028000 0.080698 0.046403
-0.027750 0.080039 0.046910
0.026250 0.080060 0.047164
0.026750 0.080018 0.046656
-0.028250 0.081399 0.046404
0.026125 0.081115 0.047230
0.026625 0.081084 0.046848
0.026000 0.082160 0.047168
0.026750 0.082114 0.046596
-0.028375 0.083190 0.046916
0.026000 0.083094 0.047170
0.026750 0.083293 0.046746
-0.028250 0.084251 0.047045
0.026000 0.084261 0.047172
0.026750 0.084230 0.046790
-0.028375 0.085276 0.046729
0.026125 0.085316 0.047238
0.026750 0.085164 0.046792
0.026750 0.086326 0.046731
-0.028000 0.087732 0.046797
0.026250 0.087041 0.046923
0.026625 0.087362 0.046542
-0.027750 0.088466 0.047179
0.026000 0.088201 0.046797
0.025750 0.089141 0.046798
-0.027000 0.090569 0.047053
0.025000 0.090579 0.047180
0.025500 0.090084 0.046841
-0.026750 0.091246 0.046672
0.024750 0.091283 0.047181
0.025500 0.091236 0.046545
-0.026000 0.091988 0.047181
-0.025750 0.092655 0.046673
0.024625 0.092317 0.046863
0.025375 0.092284 0.046418
-0.025000 0.093378 0.046928
0.023750 0.093387 0.047055
0.024750 0.093351 0.046546
-0.024250 0.094092 0.047055
0.023500 0.094083 0.046928
0.024500 0.094055 0.046546
-0.023500 0.094751 0.046420
-0.022250 0.095456 0.046420
0.022000 0.095505 0.047120
0.022750 0.095025 0.046971
0.023625 0.095117 0.046611
-0.020500 0.096188 0.046802
0.020750 0.096214 0.047184
0.021750 0.096197 0.046930
0.022750 0.096174 0.046612
-0.018000 0.097588 0.046676
0.018750 0.097386 0.047142
0.019625 0.097265 0.047089
0.020625 0.097254 0.046930
0.021750 0.097164 0.046650
0.022750 0.096866 0.046421
-0.016250 0.098276 0.046422
-0.015750 0.098319 0.047058
0.017500 0.098328 0.047185
0.018500 0.098315 0.046994
0.019500 0.098302 0.046804
0.020500 0.098297 0.046740
0.021250 0.098284 0.046549
-0.014000 0.098998 0.046677
-0.012250 0.099720 0.046932
0.016750 0.099264 0.047144
0.017625 0.099369 0.046963
0.018625 0.099357 0.046773
0.019625 0.099342 0.046550
0.020500 0.098981 0.046423
-0.009500 0.100441 0.047187
0.001500 0.100433 0.047059
0.003000 0.100391 0.046423
0.004750 0.100395 0.046487
0.005750 0.100420 0.046869
0.006500 0.100433 0.047059
0.015750 0.100437 0.047123
0.016583 0.100192 0.046975
0.017750 0.100411 0.046742
0.018500 0.100399 0.046551
0.006750 0.101118 0.046763
0.007750 0.101145 0.047187
0.015250 0.101145 0.047187
0.015750 0.101137 0.047060
0.016500 0.101120 0.046806
0.017500 0.101108 0.046615
0.007000 0.101800 0.046425
0.007750 0.101821 0.046742
0.008750 0.102060 0.046806
0.009500 0.102295 0.046806
0.010500 0.102538 0.046934
0.011500 0.102546 0.047061
0.012500 0.102546 0.047061
0.013667 0.102309 0.047018
0.014750 0.102250 0.046832
0.015750 0.102052 0.046679
0.016750 0.101805 0.046488
0.010750 0.103210 0.046425
0.011750 0.103218 0.046553
0.012750 0.103214 0.046489
-0.078250 0.111662 0.046304
-0.077250 0.111662 0.046304
-0.076250 0.111666 0.046368
-0.075250 0.111669 0.046431
-0.070250 0.111676 0.046558
-0.079250 0.112374 0.046432
-0.078500 0.112384 0.046622
-0.077250 0.112395 0.046813
-0.068750 0.112374 0.046432
-0.083000 0.113072 0.046305
-0.082250 0.113072 0.046305
-0.080000 0.113072 0.046305
-0.079250 0.113086 0.046559
-0.078250 0.113100 0.046813
-0.068000 0.113114 0.047068
-0.067500 0.113079 0.046432
-0.085250 0.114506 0.046751
-0.084312 0.113977 0.046750
-0.083250 0.113812 0.046941
-0.082500 0.113812 0.046941
-0.081188 0.113981 0.046814
-0.080250 0.114277 0.046857
-0.079500 0.114037 0.046772
-0.078750 0.113812 0.046941
-0.066375 0.114157 0.046814
-0.086250 0.115207 0.046688
-0.085750 0.115227 0.047069
-0.065250 0.115200 0.046561
-0.087750 0.116610 0.046561
-0.087250 0.116142 0.046604
-0.086500 0.115932 0.047069
-0.065000 0.115932 0.047069
-0.088000 0.117321 0.046689
-0.087500 0.117348 0.047197
-0.064000 0.117302 0.046308
-0.089000 0.118712 0.046309
-0.088500 0.118020 0.046563
-0.063625 0.118372 0.046563
-0.089250 0.119423 0.046436
-0.088500 0.119211 0.046902
-0.063250 0.119417 0.046309
-0.089250 0.120131 0.046500
-0.088500 0.120159 0.047072
-0.063000 0.120122 0.046310
-0.089250 0.121307 0.046522
-0.088625 0.121215 0.047073
-0.063125 0.121194 0.046628
-0.089250 0.122243 0.046438
-0.088500 0.122273 0.047073
-0.063250 0.122249 0.046565
-0.089125 0.123304 0.046438
-0.088500 0.123444 0.046904
-0.063625 0.123330 0.047010
-0.089000 0.124366 0.046309
-0.088250 0.124396 0.046944
-0.088250 0.125098 0.046731
-0.063750 0.125084 0.046435
-0.088125 0.126158 0.046560
-0.087375 0.126186 0.047195
-0.064125 0.126166 0.046750
-0.088000 0.127221 0.046430
-0.087500 0.127237 0.046811
-0.064500 0.127226 0.046558
-0.087750 0.127933 0.046429
-0.087375 0.128297 0.046619
-0.065375 0.128311 0.046936
-0.064750 0.127928 0.046302
-0.087250 0.129373 0.046807
-0.066000 0.129376 0.046871
-0.066500 0.130080 0.046679
-0.087000 0.131509 0.046803
-0.067250 0.131272 0.046804
-0.066750 0.130782 0.046424
-0.086750 0.132226 0.046929
-0.067750 0.132221 0.046802
-0.086375 0.133289 0.046800
-0.068125 0.133294 0.046927
-0.067625 0.133276 0.046482
-0.086000 0.134347 0.046544
-0.085500 0.134371 0.047179
-0.068250 0.134355 0.046734
-0.085500 0.135065 0.046669
-0.068500 0.135071 0.046860
-0.085000 0.135781 0.046795
-0.084500 0.136260 0.046921
-0.069250 0.136511 0.047302
-0.068625 0.136135 0.046731
-0.084000 0.137205 0.046792
-0.083500 0.137218 0.047173
-0.069250 0.137214 0.047046
-0.083750 0.137904 0.046410
-0.083125 0.138267 0.046600
-0.082417 0.138402 0.047086
-0.069875 0.138284 0.047108
-0.069250 0.138386 0.046621
-0.068750 0.137904 0.046410
-0.082250 0.139332 0.046534
-0.081500 0.139349 0.047042
-0.070250 0.139346 0.046957
-0.081250 0.140047 0.046596
-0.080500 0.140065 0.047168
-0.071250 0.140065 0.047168
-0.070250 0.140049 0.046660
-0.080750 0.140752 0.046404
-0.080250 0.140760 0.046658
-0.079375 0.141121 0.046785
-0.078417 0.141249 0.047081
-0.077250 0.141491 0.047228
-0.076250 0.141493 0.047292
-0.075250 0.141493 0.047292
-0.074250 0.141489 0.047165
-0.073083 0.141250 0.047123
-0.072250 0.141241 0.046827
-0.071500 0.141003 0.046827
-0.070750 0.140756 0.046531
-0.078250 0.142177 0.046402
-0.077250 0.142184 0.046613
-0.076250 0.142189 0.046783
-0.075500 0.142187 0.046719
-0.074500 0.142185 0.046656
-0.073250 0.142180 0.046486
-0.005500 0.037276 0.047541
-0.034750 0.038049 0.048173
-0.004500 0.038036 0.048046
-0.003375 0.038357 0.047760
-0.002417 0.038447 0.047495
-0.035125 0.039073 0.047853
-0.005000 0.038767 0.048291
-0.004375 0.039106 0.048168
-0.003500 0.039425 0.047852
-0.002500 0.039392 0.047535
-0.035000 0.040176 0.048287
-0.005000 0.040176 0.048287
-0.004250 0.040157 0.048103
-0.003250 0.040130 0.047849
-0.002250 0.040097 0.047532
-0.035000 0.041520 0.047655
-0.005000 0.041586 0.048282
-0.004375 0.041214 0.048098
-0.003375 0.041191 0.047878
-0.002375 0.041155 0.047529
-0.001750 0.040789 0.047403
-0.034750 0.042212 0.047526
-0.004500 0.042278 0.048157
-0.003500 0.042239 0.047780
-0.002500 0.042206 0.047463
-0.034000 0.042995 0.048278
-0.033750 0.043662 0.047902
-0.006250 0.043700 0.048276
-0.005375 0.043332 0.048123
-0.004375 0.043299 0.047808
-0.003417 0.043153 0.047523
-0.033000 0.044379 0.048027
-0.007250 0.044399 0.048213
-0.006250 0.044367 0.047900
-0.005250 0.044341 0.047646
-0.004500 0.044315 0.047393
-0.032500 0.045052 0.047707
-0.008500 0.045103 0.048211
-0.007188 0.045229 0.047707
-0.006250 0.045033 0.047517
-0.005750 0.045020 0.047390
0.008000 0.045726 0.047388
-0.032000 0.045738 0.047515
-0.031375 0.046110 0.047704
-0.030750 0.046469 0.047766
-0.011250 0.046503 0.048102
-0.010125 0.046148 0.048081
-0.009375 0.046126 0.047863
-0.008375 0.046101 0.047609
-0.007312 0.046261 0.047450
-0.006250 0.046431 0.047386
-0.005500 0.046431 0.047386
-0.004500 0.046456 0.047640
-0.003500 0.046501 0.048083
-0.002750 0.046519 0.048267
-0.001750 0.046519 0.048267
0.001000 0.045738 0.047515
0.001750 0.045770 0.047832
0.002500 0.045802 0.048149
0.007500 0.045777 0.047895
0.008500 0.046513 0.048207
0.009500 0.046463 0.047703
-0.030000 0.047174 0.047764
-0.029500 0.047212 0.048145
-0.013250 0.047205 0.048081
-0.012250 0.047193 0.047954
-0.011250 0.047180 0.047828
-0.010250 0.047174 0.047764
-0.009250 0.047174 0.047764
-0.008250 0.047161 0.047638
-0.007250 0.047180 0.047828
-0.006500 0.047224 0.048265
0.010000 0.047199 0.048018
0.010500 0.047161 0.047638
-0.028750 0.047904 0.048016
-0.028125 0.048244 0.047885
-0.027500 0.048609 0.048014
-0.019000 0.048633 0.048260
-0.018250 0.048633 0.048260
-0.017250 0.048590 0.047823
-0.016250 0.048572 0.047633
-0.015250 0.048176 0.047912
-0.014250 0.048370 0.047972
-0.013500 0.048135 0.047973
-0.012500 0.047904 0.048016
-0.011250 0.047916 0.048142
-0.010250 0.047929 0.048262
-0.009750 0.047929 0.048262
-0.008750 0.047929 0.048262
0.010667 0.048147 0.048097
0.011500 0.048572 0.047633
-0.026500 0.049283 0.047694
-0.025500 0.049308 0.047948
-0.024500 0.049326 0.048138
-0.023500 0.049320 0.048075
-0.022250 0.049330 0.048176
-0.021250 0.049314 0.048011
-0.020500 0.049289 0.047758
-0.019500 0.049264 0.047504
-0.016500 0.049258 0.047441
-0.015250 0.049301 0.047885
0.011750 0.049326 0.048138
0.012250 0.049289 0.047758
-0.017250 0.050675 0.047500
-0.016375 0.050347 0.047755
-0.015500 0.050019 0.048009
0.012750 0.050006 0.047882
0.013500 0.050699 0.047753
-0.018000 0.051392 0.047625
-0.017250 0.051440 0.048128
0.014000 0.051416 0.047878
0.014500 0.051368 0.047371
-0.018500 0.052109 0.047749
0.014750 0.052105 0.047707
-0.019125 0.053164 0.047748
-0.018500 0.052862 0.048247
0.014917 0.053079 0.048083
0.015750 0.053036 0.047621
0.016500 0.053508 0.047685
0.017500 0.053490 0.047495
0.018250 0.053479 0.047368
-0.019500 0.054214 0.047750
0.016000 0.054250 0.048130
0.016750 0.054238 0.048003
0.017750 0.054220 0.047813
0.018750 0.054208 0.047686
0.019500 0.054178 0.047369
-0.020000 0.055602 0.047626
-0.019500 0.055171 0.048003
0.016750 0.054961 0.048251
0.017500 0.054961 0.048251
0.018667 0.055183 0.048129
0.019625 0.055276 0.047878
0.020375 0.055234 0.047435
-0.020250 0.056290 0.047500
-0.019750 0.056349 0.048134
0.019750 0.056361 0.048254
0.020500 0.056308 0.047690
-0.020125 0.057381 0.047946
0.020000 0.057060 0.048255
0.020750 0.057020 0.047819
0.021250 0.057702 0.047630
-0.020250 0.058425 0.047881
0.020875 0.058087 0.048011
0.021500 0.058402 0.047631
-0.020250 0.059125 0.047886
0.020750 0.059159 0.048260
0.021500 0.059113 0.047759
-0.020375 0.060158 0.047698
0.020875 0.060203 0.048202
0.021625 0.060161 0.047730
-0.020500 0.061191 0.047510
0.020750 0.061247 0.048140
0.021750 0.061196 0.047573
-0.020500 0.062154 0.047850
0.019750 0.062417 0.048184
0.020625 0.062277 0.047924
0.021500 0.062131 0.047596
-0.020750 0.063347 0.048148
0.019750 0.063336 0.048021
0.020500 0.063307 0.047704
0.021250 0.063279 0.047387
-0.021125 0.064374 0.047896
0.019750 0.064046 0.048146
0.020625 0.064349 0.047611
-0.021500 0.065435 0.048025
0.020750 0.065413 0.047771
-0.021750 0.066124 0.047900
0.020750 0.066135 0.048027
0.021250 0.066091 0.047519
-0.022375 0.067163 0.047775
0.021000 0.066835 0.048028
0.021500 0.067290 0.047900
-0.023000 0.068191 0.047523
0.022000 0.068235 0.048031
-0.023375 0.069262 0.047779
0.022250 0.068934 0.048032
0.022500 0.069634 0.048034
-0.023750 0.070301 0.047654
0.022750 0.070345 0.048162
0.023250 0.070280 0.047400
-0.024125 0.071346 0.047593
0.023000 0.071045 0.048163
0.023625 0.071346 0.047593
-0.024000 0.072444 0.048166
0.023583 0.072193 0.047954
-0.024250 0.073123 0.047913
0.023750 0.073144 0.048168
0.024250 0.073091 0.047532
-0.024625 0.074173 0.047916
0.024000 0.073833 0.048042
0.024500 0.074271 0.047704
0.024750 0.075217 0.047854
0.024875 0.076293 0.048174
0.025375 0.076256 0.047729
0.025500 0.077322 0.047922
-0.026500 0.078001 0.047669
0.025750 0.078241 0.047754
0.025750 0.079417 0.047862
0.025750 0.080122 0.047927
0.025625 0.081166 0.047866
-0.028000 0.082231 0.048059
0.025500 0.082211 0.047804
-0.028000 0.083621 0.047934
0.025000 0.083621 0.047934
0.025375 0.083251 0.047679
0.024750 0.084321 0.047936
0.025250 0.084281 0.047427
-0.028000 0.085021 0.047937
0.024000 0.085041 0.048191
0.024625 0.085366 0.047874
0.025500 0.085454 0.047514
-0.028000 0.086371 0.047303
0.024000 0.086440 0.048194
0.024750 0.086421 0.047940
0.025750 0.086381 0.047431
-0.027750 0.087101 0.047686
0.024500 0.087130 0.048068
0.025500 0.087081 0.047432
-0.027375 0.088162 0.047815
0.024625 0.088165 0.047847
0.025375 0.088133 0.047434
-0.027250 0.089199 0.047561
0.023750 0.089238 0.048070
0.024750 0.089194 0.047498
-0.027250 0.089884 0.047307
-0.026625 0.090270 0.047753
0.018750 0.090655 0.048199
0.019500 0.090655 0.048199
0.022750 0.090655 0.048199
0.023625 0.090282 0.047912
0.024500 0.090135 0.047520
-0.026250 0.091302 0.047435
-0.025750 0.091359 0.048199
0.018500 0.091345 0.048008
0.019500 0.091345 0.048008
0.020500 0.091354 0.048135
0.021750 0.091356 0.048157
0.022750 0.091349 0.048072
0.023500 0.091326 0.047754
0.024250 0.091302 0.047435
-0.025375 0.092382 0.047754
0.018000 0.092053 0.048072
0.018750 0.092266 0.047775
0.019583 0.092269 0.047818
0.020750 0.092053 0.048072
0.021750 0.092049 0.048009
0.022750 0.092269 0.047818
0.023625 0.092359 0.047436
-0.024500 0.093443 0.047819
0.017750 0.093223 0.048030
0.018583 0.093199 0.047691
0.019750 0.093202 0.047734
0.020625 0.093093 0.047850
0.021750 0.093024 0.047869
0.022750 0.093420 0.047500
-0.023750 0.094174 0.048201
0.017500 0.094160 0.048010
0.018500 0.094133 0.047628
0.019500 0.094128 0.047564
0.020500 0.094138 0.047692
0.021750 0.094129 0.047564
0.022750 0.094110 0.047310
-0.023000 0.094851 0.047819
-0.022125 0.095203 0.047819
-0.021250 0.095582 0.048201
0.016667 0.095338 0.048074
0.017625 0.095201 0.047788
0.018625 0.095183 0.047533
0.019625 0.095178 0.047470
0.020625 0.095180 0.047501
0.021583 0.095052 0.047353
0.015750 0.096281 0.048138
0.016750 0.096254 0.047757
0.017750 0.096241 0.047566
0.018750 0.096223 0.047311
0.019750 0.096223 0.047311
-0.019250 0.096963 0.047821
-0.017250 0.097671 0.047885
0.014000 0.097693 0.048203
0.014875 0.097333 0.048075
0.015750 0.097427 0.047736
0.016625 0.097302 0.047630
0.017625 0.097286 0.047407
0.018250 0.096928 0.047312
-0.015000 0.098380 0.047949
0.013500 0.098393 0.048139
0.014750 0.098371 0.047821
0.015750 0.098354 0.047567
0.016500 0.098341 0.047376
-0.013500 0.099058 0.047567
0.006000 0.099101 0.048203
0.006750 0.099101 0.048203
0.007750 0.099101 0.048203
0.012750 0.099096 0.048140
0.013750 0.099088 0.048013
0.014750 0.099062 0.047631
0.015750 0.099045 0.047377
-0.011250 0.099771 0.047695
-0.009000 0.100475 0.047695
-0.008250 0.100475 0.047695
-0.007500 0.100492 0.047950
-0.006000 0.100508 0.048204
-0.004250 0.100504 0.048141
-0.000250 0.100479 0.047759
0.000750 0.100462 0.047505
0.003750 0.099782 0.047865
0.004750 0.099754 0.047441
0.005500 0.099758 0.047504
0.006812 0.099938 0.047568
0.007750 0.100234 0.047611
0.008625 0.100133 0.047854
0.009625 0.100144 0.048013
0.010625 0.100152 0.048140
0.011625 0.100152 0.048140
0.012625 0.100148 0.048077
0.013625 0.100131 0.047822
0.014750 0.100042 0.047543
0.015750 0.099745 0.047313
0.008500 0.101158 0.047378
0.009500 0.101175 0.047632
0.010500 0.101183 0.047759
0.011500 0.101187 0.047823
0.012500 0.101183 0.047759
0.013500 0.101175 0.047632
0.014500 0.101158 0.047378
0.010000 0.101858 0.047315
0.010750 0.101866 0.047442
0.011750 0.101875 0.047569
0.012750 0.101870 0.047505
0.013500 0.101858 0.047315
-0.074500 0.111733 0.047575
-0.071000 0.111726 0.047448
-0.076250 0.112424 0.047321
-0.075750 0.112473 0.048211
-0.074000 0.111755 0.047956
-0.073250 0.111748 0.047829
-0.072250 0.111745 0.047766
-0.071500 0.111741 0.047702
-0.070000 0.112445 0.047703
-0.069250 0.112424 0.047321
-0.077500 0.113128 0.047322
-0.068500 0.113149 0.047703
-0.084000 0.114543 0.047450
-0.083250 0.114550 0.047577
-0.082250 0.114547 0.047513
-0.081500 0.114537 0.047323
-0.079000 0.114557 0.047704
-0.078250 0.113839 0.047449
-0.067333 0.114099 0.047915
-0.066500 0.114543 0.047450
-0.085250 0.115241 0.047323
-0.084250 0.115263 0.047747
-0.083250 0.115281 0.048085
-0.082500 0.115278 0.048022
-0.081250 0.115268 0.047831
-0.080250 0.115261 0.047704
-0.079750 0.115268 0.047831
-0.066000 0.115265 0.047768
-0.086333 0.116426 0.047536
-0.085375 0.116327 0.047896
-0.084375 0.116337 0.048086
-0.083500 0.115992 0.048213
-0.081250 0.115989 0.048150
-0.080500 0.115992 0.048213
-0.065375 0.116330 0.047959
-0.064750 0.116656 0.047451
-0.087000 0.117367 0.047578
-0.086250 0.117387 0.047960
-0.064500 0.117374 0.047706
-0.087750 0.118058 0.047325
-0.087250 0.118071 0.047579
-0.086750 0.118091 0.047960
-0.064250 0.118071 0.047579
-0.087875 0.119121 0.047453
-0.087250 0.119025 0.047876
-0.064000 0.118769 0.047452
-0.063750 0.119473 0.047453
-0.088000 0.120178 0.047453
-0.087250 0.120209 0.048088
-0.063500 0.120171 0.047326
-0.088000 0.121119 0.047496
-0.087250 0.121379 0.048047
-0.064000 0.121622 0.048216
-0.063625 0.121246 0.047708
-0.087750 0.122302 0.047709
-0.087250 0.122314 0.047963
-0.063750 0.122296 0.047582
-0.087875 0.123351 0.047454
-0.087250 0.123253 0.047920
-0.086750 0.123735 0.048089
-0.064125 0.123374 0.047962
-0.087250 0.124429 0.047706
-0.086500 0.124452 0.048214
-0.064250 0.124433 0.047770
-0.087250 0.125135 0.047578
-0.086750 0.125152 0.047959
-0.064500 0.125144 0.047768
-0.087000 0.125847 0.047576
-0.086625 0.126219 0.047957
-0.065125 0.126231 0.048211
-0.064625 0.126197 0.047449
-0.087000 0.127259 0.047320
-0.086500 0.127292 0.048082
-0.065250 0.127275 0.047701
-0.087000 0.128682 0.047317
-0.086625 0.128356 0.048016
-0.066083 0.128461 0.047698
-0.086750 0.129415 0.047823
-0.066750 0.129415 0.047823
-0.087000 0.130106 0.047314
-0.086500 0.130142 0.048203
-0.067250 0.130124 0.047758
-0.086625 0.131184 0.047566
-0.068250 0.131552 0.047883
-0.067750 0.130833 0.047694
-0.086250 0.132246 0.047437
-0.085750 0.132276 0.048199
-0.068500 0.132261 0.047818
-0.086000 0.132957 0.047435
-0.085500 0.133446 0.047816
-0.069125 0.133337 0.048070
-0.068625 0.133318 0.047562
-0.085000 0.134390 0.047687
-0.084500 0.134409 0.048195
-0.069250 0.134397 0.047877
-0.084500 0.135101 0.047685
-0.069750 0.135120 0.048193
-0.069250 0.135102 0.047685
-0.083875 0.136165 0.047556
-0.083375 0.136178 0.047937
-0.082750 0.136543 0.048190
-0.070000 0.136297 0.047937
-0.069250 0.135808 0.047557
-0.083000 0.137232 0.047554
-0.082500 0.137245 0.047935
-0.070250 0.137240 0.047808
-0.082250 0.137943 0.047553
-0.081417 0.138426 0.047806
-0.080500 0.138676 0.048186
-0.072000 0.138676 0.048186
-0.071250 0.138431 0.047933
-0.070500 0.138182 0.047595
-0.080750 0.139366 0.047550
-0.080250 0.139375 0.047804
-0.079750 0.139383 0.048058
-0.073000 0.139388 0.048185
-0.072250 0.139379 0.047931
-0.071500 0.139369 0.047613
-0.080000 0.140074 0.047422
-0.079250 0.140084 0.047739
-0.078250 0.140092 0.047993
-0.077250 0.140099 0.048183
-0.076250 0.140099 0.048183
-0.075250 0.140099 0.048183
-0.074250 0.140095 0.048056
-0.073250 0.140086 0.047803
-0.072250 0.140078 0.047549
-0.078250 0.140789 0.047547
-0.077250 0.140793 0.047674
-0.076250 0.140798 0.047801
-0.075500 0.140793 0.047674
-0.074500 0.140793 0.047674
-0.073500 0.140787 0.047484
-0.011000 0.037423 0.048896
-0.010500 0.037462 0.049256
-0.008250 0.037384 0.048536
-0.034250 0.038167 0.049254
-0.008500 0.038160 0.049194
-0.007250 0.038123 0.048854
-0.006250 0.038088 0.048533
-0.005500 0.038075 0.048413
-0.034625 0.039197 0.049010
-0.008125 0.039216 0.049190
-0.007250 0.039262 0.048962
-0.006250 0.039041 0.048650
-0.005500 0.039258 0.048490
-0.034500 0.040279 0.049247
-0.008000 0.040279 0.049247
-0.007250 0.040247 0.048947
-0.006250 0.040222 0.048707
-0.005500 0.040202 0.048527
-0.034375 0.041301 0.048914
-0.008125 0.041336 0.049244
-0.007250 0.041242 0.049028
-0.006250 0.041394 0.048683
-0.005500 0.041142 0.048524
-0.034250 0.042316 0.048520
-0.033750 0.042367 0.049000
-0.008250 0.042392 0.049241
-0.007250 0.042363 0.048960
-0.006250 0.042329 0.048640
-0.005500 0.042310 0.048460
-0.033375 0.043386 0.048637
-0.008250 0.043078 0.049058
-0.007083 0.043272 0.048677
-0.006250 0.043027 0.048578
-0.032417 0.044224 0.048795
-0.010000 0.044493 0.049114
-0.009250 0.044245 0.048995
-0.008375 0.044097 0.048695
-0.007500 0.043744 0.048696
-0.031500 0.045160 0.048752
-0.030750 0.045210 0.049232
-0.011000 0.045197 0.049112
-0.010250 0.045160 0.048752
-0.009500 0.045147 0.048632
-0.031000 0.045827 0.048389
-0.030125 0.046220 0.048778
-0.029250 0.046593 0.048987
-0.014250 0.046606 0.049107
-0.013500 0.046587 0.048927
-0.012375 0.046216 0.048748
-0.011250 0.045864 0.048749
-0.010500 0.045839 0.048509
-0.002250 0.046531 0.048387
-0.001250 0.046531 0.048387
-0.000250 0.046560 0.048667
0.000750 0.046581 0.048867
0.001500 0.046581 0.048867
0.002667 0.046346 0.048868
0.003583 0.046086 0.048629
0.004750 0.045846 0.048569
0.005750 0.045852 0.048629
0.006750 0.046294 0.048820
0.007750 0.046556 0.048627
-0.029000 0.047261 0.048625
-0.028250 0.047304 0.049045
-0.015250 0.047292 0.048925
-0.014250 0.047242 0.048445
-0.006000 0.047249 0.048505
-0.005250 0.047273 0.048745
-0.004250 0.047304 0.049045
-0.003250 0.047316 0.049165
-0.002500 0.047322 0.049225
0.008000 0.047322 0.049225
0.008750 0.047279 0.048805
0.009500 0.047236 0.048385
-0.027333 0.048213 0.048742
-0.026250 0.048682 0.048741
-0.025250 0.048719 0.049101
-0.022250 0.048731 0.049221
-0.021250 0.048713 0.049041
-0.020250 0.048688 0.048801
-0.019500 0.048658 0.048501
-0.017750 0.048014 0.049103
-0.017250 0.048002 0.048983
-0.016500 0.047965 0.048623
-0.013000 0.048646 0.048380
-0.012250 0.048694 0.048861
-0.011250 0.048713 0.049041
-0.009250 0.047941 0.048383
-0.008250 0.047941 0.048383
-0.007500 0.048002 0.048983
0.009667 0.048233 0.048942
0.010500 0.048670 0.048620
-0.014250 0.049362 0.048498
-0.013500 0.049417 0.049039
0.010750 0.049411 0.048979
0.011250 0.049362 0.048498
-0.015000 0.050067 0.048496
-0.014250 0.050115 0.048976
0.011750 0.050097 0.048796
-0.016250 0.051500 0.048732
-0.015250 0.051090 0.048853
0.012667 0.051039 0.048813
0.013500 0.051464 0.048372
-0.017750 0.052181 0.048489
-0.017250 0.052217 0.048850
-0.016750 0.052241 0.049090
0.013500 0.052217 0.048850
-0.018333 0.053368 0.048648
-0.017500 0.052957 0.049208
0.014000 0.052921 0.048848
0.014500 0.053609 0.048729
-0.019000 0.054273 0.048370
-0.018500 0.054308 0.048730
0.014750 0.054320 0.048850
0.015500 0.054273 0.048370
-0.019000 0.055707 0.048733
-0.018500 0.055037 0.049032
0.015000 0.055031 0.048972
0.015750 0.055474 0.048732
0.016583 0.055451 0.048492
0.017750 0.055684 0.048493
0.018500 0.055672 0.048373
-0.019250 0.056395 0.048614
-0.018625 0.056097 0.049154
0.015125 0.056103 0.049214
0.015750 0.056441 0.049094
0.016500 0.056412 0.048794
0.017500 0.056406 0.048734
0.018500 0.056389 0.048554
0.019250 0.056383 0.048494
-0.019250 0.057117 0.048856
0.016000 0.057140 0.049096
0.016750 0.057128 0.048976
0.017750 0.057117 0.048856
0.018750 0.057100 0.048676
0.019500 0.057083 0.048496
-0.019500 0.058046 0.048818
0.016625 0.058194 0.049158
0.017625 0.058177 0.048978
0.018625 0.058163 0.048828
0.019625 0.058149 0.048678
0.020375 0.058121 0.048378
-0.019750 0.059193 0.048620
0.016750 0.059248 0.049220
0.017500 0.059232 0.049040
0.018500 0.059221 0.048920
0.019500 0.059209 0.048800
0.020250 0.059182 0.048500
-0.020000 0.059870 0.048381
-0.019625 0.060280 0.049042
0.017000 0.059947 0.049221
0.017625 0.060286 0.049102
0.018625 0.060264 0.048862
0.019625 0.060247 0.048682
0.020375 0.060220 0.048382
-0.020000 0.061302 0.048744
0.017750 0.061329 0.049044
0.018750 0.061297 0.048684
0.019750 0.061275 0.048444
-0.020000 0.062711 0.048867
-0.019750 0.062034 0.049105
0.017750 0.062034 0.049105
0.018625 0.062346 0.048686
0.019250 0.061969 0.048385
-0.020250 0.063400 0.048748
0.018000 0.062744 0.049227
0.018500 0.063427 0.049048
0.019250 0.063368 0.048388
-0.020500 0.064099 0.048749
0.018750 0.064126 0.049049
-0.021000 0.065498 0.048752
-0.020750 0.064799 0.048751
0.018875 0.065190 0.049231
0.019625 0.065143 0.048691
-0.021250 0.066198 0.048753
0.019500 0.066223 0.049053
0.020250 0.066177 0.048514
-0.022000 0.067586 0.048636
-0.021500 0.066918 0.048995
0.019875 0.067272 0.049055
0.020500 0.067360 0.048716
-0.022250 0.068306 0.048878
0.020000 0.068336 0.049237
0.020750 0.068306 0.048878
0.021500 0.068266 0.048398
-0.023000 0.069675 0.048521
-0.022750 0.068965 0.048399
0.020875 0.069380 0.049179
0.021625 0.069335 0.048640
-0.023250 0.070365 0.048402
0.022000 0.070389 0.048702
-0.023500 0.071064 0.048403
0.022000 0.071113 0.049003
0.022500 0.071084 0.048643
-0.023500 0.071807 0.048944
0.022250 0.071812 0.049004
0.022750 0.072253 0.048685
0.022250 0.073229 0.049247
0.022750 0.073201 0.048887
0.023250 0.073173 0.048527
0.022750 0.074146 0.049049
0.023500 0.074339 0.048530
-0.025000 0.075262 0.048412
0.023000 0.075317 0.049131
0.023750 0.075276 0.048591
-0.025250 0.075998 0.048893
0.023625 0.076359 0.049043
0.024375 0.076325 0.048593
0.023750 0.077424 0.049255
0.024500 0.077383 0.048716
0.024000 0.078114 0.049136
0.024750 0.078078 0.048657
-0.027000 0.079503 0.049019
-0.026750 0.078796 0.048898
0.024000 0.079521 0.049259
0.024625 0.079143 0.048869
0.025250 0.078760 0.048418
-0.027250 0.080211 0.049140
0.024500 0.080203 0.049021
0.025250 0.080168 0.048541
-0.027500 0.081351 0.048783
0.024625 0.081239 0.048843
0.025250 0.081550 0.048304
-0.027500 0.082284 0.048785
0.024000 0.082309 0.049144
0.024750 0.082267 0.048545
-0.027625 0.083329 0.048727
0.023750 0.083466 0.049027
0.024500 0.083200 0.048547
-0.027750 0.084357 0.048430
0.023500 0.084394 0.048969
0.024250 0.084349 0.048310
-0.027500 0.085105 0.049150
0.023000 0.085097 0.049030
0.023500 0.085065 0.048551
-0.027625 0.086110 0.048493
0.021917 0.086271 0.049152
0.022750 0.086244 0.048753
0.023500 0.085990 0.048433
-0.027250 0.087179 0.048795
0.021750 0.087198 0.049074
0.022750 0.087179 0.048795
0.023500 0.087160 0.048495
-0.027000 0.087879 0.048796
-0.026750 0.088574 0.048676
0.018625 0.088254 0.049155
0.019625 0.088252 0.049126
0.020625 0.088248 0.049066
0.021750 0.088313 0.048988
0.022750 0.088111 0.048756
0.023625 0.088203 0.048377
-0.026500 0.089286 0.048797
0.018000 0.089301 0.049036
0.018750 0.089278 0.048677
0.019750 0.089282 0.048737
0.020750 0.089286 0.048797
0.021750 0.089282 0.048737
0.022750 0.089267 0.048497
-0.026125 0.090322 0.048498
-0.025625 0.090363 0.049157
0.017750 0.090465 0.048917
0.018500 0.089970 0.048498
0.019667 0.090198 0.048398
0.020625 0.090320 0.048468
0.021750 0.090248 0.048438
0.022750 0.089959 0.048318
-0.025250 0.091396 0.048798
0.017500 0.091399 0.048858
-0.025000 0.092085 0.048559
-0.024500 0.092128 0.049277
0.017000 0.092128 0.049277
0.017500 0.092077 0.048439
-0.024333 0.093030 0.048679
-0.023417 0.093293 0.049158
0.016750 0.093283 0.048999
0.017250 0.092788 0.048559
-0.023250 0.094195 0.048560
-0.022750 0.094209 0.048799
0.016500 0.094199 0.048620
-0.022000 0.094906 0.048680
-0.020750 0.095630 0.049040
0.015000 0.095620 0.048860
0.015750 0.095138 0.048640
0.016500 0.094885 0.048321
-0.020000 0.096306 0.048561
-0.019500 0.096326 0.048920
0.013750 0.096330 0.048980
0.014750 0.096306 0.048561
-0.018250 0.097019 0.048721
-0.016250 0.097716 0.048622
-0.015500 0.097733 0.048921
0.010750 0.097503 0.049001
0.011625 0.097390 0.049071
0.012625 0.097373 0.048771
0.013500 0.097244 0.048562
0.014250 0.096996 0.048322
-0.014250 0.098423 0.048682
-0.013750 0.098449 0.049161
0.005750 0.098456 0.049281
0.006750 0.098436 0.048922
0.007750 0.098430 0.048802
0.008625 0.098087 0.048951
0.009625 0.098083 0.048891
0.010500 0.098420 0.048622
0.011500 0.098417 0.048562
0.012500 0.098407 0.048383
-0.013000 0.099120 0.048563
-0.012250 0.099140 0.048922
-0.011500 0.099153 0.049161
0.004000 0.099159 0.049281
0.004750 0.099124 0.048623
0.005500 0.099107 0.048323
0.008750 0.099107 0.048323
0.009750 0.099111 0.048383
0.010750 0.099114 0.048443
0.011750 0.099107 0.048323
-0.010250 0.099811 0.048324
-0.009500 0.099840 0.048862
-0.008500 0.099853 0.049102
-0.007000 0.100515 0.048324
-0.006500 0.100515 0.048324
-0.005250 0.100518 0.048384
-0.003250 0.100524 0.048504
-0.002250 0.100518 0.048384
-0.001250 0.100527 0.048563
0.001500 0.099856 0.049162
0.002500 0.099824 0.048563
-0.075250 0.112483 0.048450
-0.074500 0.112493 0.048690
-0.073250 0.112496 0.048770
-0.072250 0.112493 0.048690
-0.071500 0.112491 0.048630
-0.070750 0.112483 0.048450
-0.077000 0.113182 0.048331
-0.076250 0.113206 0.048930
-0.075500 0.113221 0.049289
-0.070000 0.113216 0.049169
-0.069250 0.113192 0.048570
-0.078500 0.114608 0.048811
-0.077500 0.113912 0.048990
-0.068500 0.113912 0.048990
-0.067500 0.114608 0.048811
-0.079250 0.115312 0.048811
-0.078750 0.115330 0.049290
-0.066750 0.115312 0.048811
-0.083750 0.116705 0.048453
-0.083125 0.116356 0.048512
-0.082375 0.116356 0.048542
-0.081250 0.116706 0.048493
-0.080125 0.116356 0.048512
-0.079625 0.116374 0.048991
-0.066083 0.116252 0.048891
-0.085250 0.117410 0.048513
-0.084250 0.117417 0.048693
-0.083250 0.117426 0.048932
-0.082250 0.117424 0.048872
-0.081250 0.117417 0.048692
-0.080250 0.117428 0.048992
-0.065250 0.117424 0.048872
-0.086250 0.118108 0.048334
-0.085500 0.118121 0.048693
-0.084250 0.118134 0.049052
-0.083250 0.118138 0.049172
-0.082500 0.118136 0.049112
-0.081250 0.118128 0.048892
-0.080250 0.118138 0.049172
-0.064750 0.118121 0.048693
-0.086375 0.119167 0.048454
-0.085375 0.119186 0.048963
-0.084250 0.119265 0.049196
-0.083250 0.119080 0.049292
-0.082375 0.119193 0.049172
-0.081250 0.119262 0.049124
-0.080500 0.118837 0.049052
-0.064500 0.119299 0.048853
-0.086250 0.120231 0.048694
-0.085250 0.120244 0.049053
-0.084250 0.120248 0.049173
-0.083250 0.120252 0.049293
-0.082250 0.120250 0.049233
-0.081250 0.120250 0.049233
-0.064250 0.120233 0.048754
-0.086375 0.121284 0.048635
-0.085375 0.121298 0.049024
-0.084250 0.121233 0.049197
-0.083250 0.121424 0.049293
-0.082375 0.121306 0.049293
-0.081500 0.121188 0.049253
-0.064375 0.121294 0.048934
-0.086500 0.122336 0.048516
-0.085500 0.122348 0.048875
-0.084250 0.122357 0.049174
-0.083250 0.122361 0.049294
-0.082750 0.122361 0.049294
-0.064250 0.122334 0.048456
-0.086250 0.123041 0.048576
-0.085250 0.123051 0.048875
-0.084250 0.123059 0.049115
-0.064500 0.123049 0.048815
-0.086125 0.124106 0.048514
-0.085375 0.124116 0.048843
-0.084500 0.123769 0.049113
-0.065000 0.124471 0.048813
-0.064750 0.123760 0.048814
-0.086250 0.125167 0.048333
-0.085500 0.125188 0.048991
-0.065250 0.125182 0.048811
-0.086125 0.126241 0.048570
-0.085625 0.126256 0.049108
-0.066000 0.126372 0.049008
-0.065500 0.125889 0.048690
-0.086000 0.127318 0.048927
-0.066250 0.127311 0.048687
-0.086250 0.128018 0.048566
-0.085750 0.128039 0.049284
-0.067125 0.128383 0.048865
-0.066500 0.128018 0.048566
-0.086125 0.129090 0.048744
-0.085750 0.129457 0.049162
-0.068250 0.129457 0.049162
-0.067500 0.129208 0.048724
-0.086000 0.130158 0.048802
-0.068250 0.130154 0.048682
-0.086125 0.131212 0.048321
-0.085417 0.131348 0.048999
-0.069250 0.131347 0.048959
-0.068500 0.130863 0.048561
-0.085250 0.132287 0.048678
-0.084750 0.132299 0.049157
-0.069750 0.132296 0.049037
-0.069250 0.132282 0.048438
-0.085000 0.132995 0.048557
-0.084312 0.133536 0.048855
-0.070000 0.133477 0.048875
-0.069500 0.132995 0.048557
-0.084000 0.134420 0.048673
-0.083500 0.134428 0.049033
-0.071000 0.134434 0.049272
-0.070250 0.134422 0.048793
-0.083750 0.135123 0.048313
-0.083250 0.135134 0.048792
-0.082750 0.135142 0.049151
-0.071250 0.135145 0.049271
-0.070500 0.135133 0.048732
-0.083000 0.135839 0.048551
-0.082250 0.136084 0.048910
-0.081500 0.136564 0.049148
-0.072250 0.136563 0.049148
-0.071375 0.136202 0.048880
-0.070625 0.136193 0.048490
-0.082000 0.137256 0.048309
-0.081250 0.137267 0.048788
-0.080500 0.137274 0.049147
-0.073000 0.137276 0.049267
-0.072250 0.137268 0.048908
-0.071250 0.137258 0.048429
-0.081000 0.137970 0.048427
-0.080125 0.138329 0.048606
-0.079375 0.138336 0.048965
-0.078250 0.138693 0.049024
-0.077250 0.138694 0.049084
-0.076250 0.138695 0.049144
-0.075250 0.138693 0.049024
-0.074250 0.138455 0.048985
-0.073250 0.138262 0.048810
-0.072375 0.138328 0.048546
-0.071750 0.137968 0.048307
-0.079250 0.139390 0.048305
-0.078500 0.139393 0.048484
-0.077250 0.139397 0.048664
-0.076250 0.139397 0.048664
-0.075500 0.139397 0.048664
-0.074500 0.139393 0.048484
-0.073750 0.139390 0.048305
-0.014000 0.037515 0.049736
-0.013250 0.037547 0.050036
-0.012000 0.037488 0.049496
-0.033750 0.038232 0.049854
-0.011250 0.038249 0.050014
-0.010250 0.038232 0.049854
-0.009500 0.038193 0.049494
-0.034125 0.039275 0.049731
-0.033625 0.039320 0.050151
-0.011125 0.039317 0.050121
-0.010250 0.039166 0.049811
-0.009375 0.039259 0.049581
-0.008625 0.039236 0.049370
-0.034000 0.040331 0.049727
-0.011250 0.040382 0.050208
-0.010250 0.040350 0.049907
-0.009250 0.040318 0.049607
-0.008500 0.040292 0.049367
-0.033625 0.041387 0.049724
-0.010750 0.041073 0.050085
-0.010250 0.041060 0.049965
-0.009333 0.041265 0.049684
-0.008625 0.041355 0.049424
-0.033125 0.042104 0.049842
-0.032750 0.042481 0.050081
-0.011000 0.042247 0.050082
-0.010250 0.041991 0.049882
-0.009500 0.042204 0.049682
-0.008750 0.042418 0.049481
-0.033000 0.043109 0.049358
-0.032250 0.043166 0.049899
-0.011250 0.043179 0.050019
-0.010250 0.043147 0.049719
-0.009250 0.043116 0.049419
-0.032250 0.043814 0.049356
-0.031375 0.044203 0.049715
-0.030500 0.044580 0.049954
-0.013000 0.044606 0.050195
-0.012250 0.044354 0.050035
-0.011250 0.044138 0.049764
-0.010375 0.044178 0.049475
-0.009750 0.043814 0.049356
-0.030000 0.045272 0.049832
-0.029250 0.045309 0.050192
-0.013500 0.045291 0.050012
-0.012500 0.045247 0.049592
-0.011750 0.045222 0.049352
-0.029083 0.046190 0.049629
-0.028375 0.046334 0.049889
-0.027500 0.046705 0.050068
-0.016250 0.046705 0.050068
-0.015188 0.046495 0.049738
-0.014250 0.045970 0.049770
-0.013250 0.045932 0.049410
0.004000 0.046637 0.049408
0.004750 0.046643 0.049468
0.005500 0.046631 0.049348
-0.027250 0.047372 0.049706
-0.026250 0.047409 0.050066
-0.018000 0.047421 0.050186
-0.017250 0.047384 0.049826
-0.016250 0.047347 0.049465
-0.002000 0.047335 0.049345
-0.001250 0.047347 0.049465
-0.000250 0.047359 0.049585
0.000750 0.047378 0.049766
0.001750 0.047396 0.049946
0.002750 0.047396 0.049946
0.003750 0.047409 0.050066
0.004750 0.047415 0.050126
0.005750 0.047402 0.050006
0.006750 0.047372 0.049706
0.007500 0.047347 0.049465
-0.026500 0.048045 0.049403
-0.025500 0.048088 0.049824
-0.024500 0.048119 0.050124
-0.021250 0.048125 0.050184
-0.020500 0.048125 0.050184
-0.019500 0.048094 0.049884
-0.018500 0.048051 0.049463
-0.006750 0.048051 0.049463
-0.006250 0.048051 0.049463
-0.005500 0.048064 0.049583
-0.004500 0.048082 0.049763
-0.003500 0.048088 0.049824
-0.002500 0.048100 0.049944
-0.001500 0.048113 0.050064
0.007250 0.048113 0.050064
0.007750 0.048100 0.049944
0.008500 0.048063 0.049583
-0.024250 0.048743 0.049341
-0.023250 0.048743 0.049341
-0.012500 0.049490 0.049759
-0.011250 0.049512 0.049979
-0.010250 0.049006 0.049620
-0.009375 0.049168 0.050060
-0.008250 0.048835 0.050242
-0.007250 0.048841 0.050302
-0.006250 0.048829 0.050182
-0.005250 0.048841 0.050302
0.008750 0.048804 0.049941
0.009500 0.049257 0.049780
0.010250 0.049447 0.049339
-0.013250 0.050200 0.049817
-0.012250 0.050242 0.050237
0.010000 0.050224 0.050057
0.010750 0.050176 0.049577
-0.014250 0.051353 0.049613
-0.013500 0.051163 0.050054
0.010750 0.050928 0.050055
0.011625 0.051262 0.049874
0.012500 0.051560 0.049332
-0.016250 0.052264 0.049330
-0.015250 0.052292 0.049610
-0.014250 0.052324 0.049931
-0.013750 0.052360 0.050291
0.012500 0.052312 0.049810
-0.017750 0.053668 0.049329
-0.017125 0.053348 0.049629
-0.016250 0.053022 0.049868
-0.015250 0.053040 0.050049
-0.014250 0.053058 0.050229
0.012750 0.053034 0.049988
0.013500 0.053458 0.049569
-0.018000 0.054367 0.049331
-0.017250 0.054431 0.049991
-0.016500 0.053750 0.050170
0.013750 0.054408 0.049751
-0.017750 0.055112 0.049812
-0.017250 0.055147 0.050172
0.013750 0.055135 0.050052
0.014250 0.055101 0.049692
-0.018000 0.056269 0.049734
-0.017500 0.055834 0.050054
0.014000 0.055834 0.050054
0.014500 0.056276 0.049814
-0.018250 0.057214 0.049876
0.014750 0.057202 0.049756
0.015500 0.057163 0.049336
-0.019000 0.058583 0.049579
-0.018500 0.058158 0.050018
0.014000 0.058639 0.050179
0.014750 0.058188 0.049842
0.015750 0.058331 0.049378
-0.019250 0.059259 0.049340
-0.018750 0.059326 0.050060
0.013750 0.059348 0.050300
0.014750 0.059315 0.049940
0.015750 0.059282 0.049580
0.016250 0.059259 0.049340
-0.019125 0.060341 0.049702
0.014000 0.060047 0.050301
0.014875 0.060374 0.050062
0.015750 0.060228 0.049742
0.016500 0.060435 0.049462
-0.019250 0.061394 0.049764
0.015750 0.061422 0.050064
0.016750 0.061378 0.049584
-0.019250 0.062109 0.049945
0.016500 0.062109 0.049945
0.017250 0.062066 0.049465
-0.019625 0.063131 0.049647
0.016750 0.063051 0.050067
0.017500 0.063245 0.049628
-0.020000 0.064152 0.049349
0.017000 0.064226 0.050189
0.017750 0.064184 0.049709
-0.020375 0.065211 0.049471
0.017625 0.065258 0.050011
0.018375 0.065222 0.049591
-0.020750 0.066290 0.049833
0.017750 0.066321 0.050193
0.018500 0.066280 0.049713
-0.021125 0.067354 0.050015
0.018750 0.067225 0.049875
0.019375 0.067308 0.049475
-0.021500 0.068406 0.050077
0.019000 0.068406 0.050077
0.019500 0.068366 0.049597
-0.022000 0.069085 0.049839
0.019500 0.069080 0.049779
0.020250 0.069045 0.049359
-0.022417 0.070007 0.049720
0.019625 0.070140 0.049930
0.020500 0.070233 0.049641
0.021250 0.070443 0.049361
-0.023000 0.071152 0.049483
