ply
format ascii 1.0
element vertex 1724
property float x
property float y
property float z
end_header
0.008375 0.171726 0.020514
0.009375 0.171726 0.020483
0.010250 0.171601 0.020240
0.011000 0.172092 0.020133
0.007500 0.172829 0.019941
0.008250 0.172831 0.020195
0.009250 0.172833 0.020449
0.010250 0.172833 0.020449
0.011250 0.172832 0.020258
0.012000 0.172829 0.019941
0.008750 0.173568 0.019940
0.009500 0.173570 0.020257
0.010250 0.173570 0.020320
0.011250 0.173570 0.020320
0.012500 0.173568 0.020067
0.010250 0.174307 0.020129
0.011250 0.174750 0.020166
0.012375 0.174677 0.020223
0.013375 0.174676 0.020033
0.012250 0.175783 0.019935
0.013250 0.175784 0.020062
0.014250 0.175784 0.019999
0.013500 0.176522 0.019998
0.014500 0.176521 0.019934
0.015250 0.176521 0.019934
0.014500 0.177260 0.019933
0.015000 0.177260 0.019933
-0.048750 0.090095 0.021476
-0.048750 0.091549 0.021669
-0.048625 0.092625 0.021608
-0.048750 0.096553 0.021108
-0.047000 0.103024 0.020867
-0.046750 0.103776 0.021378
-0.004667 0.131462 0.021191
-0.005750 0.132680 0.021401
-0.006625 0.133767 0.021336
-0.007500 0.134872 0.021779
-0.007750 0.135588 0.021524
-0.008250 0.137036 0.021395
-0.008000 0.136314 0.021523
-0.008500 0.137770 0.021648
-0.008625 0.138847 0.021265
-0.009250 0.139948 0.021645
-0.008875 0.139573 0.021264
-0.009500 0.140673 0.021644
-0.009000 0.140657 0.021136
-0.009625 0.141756 0.021452
-0.010250 0.142855 0.021768
-0.009500 0.142834 0.021069
-0.009750 0.143564 0.021195
-0.010625 0.144664 0.021575
-0.009875 0.144647 0.021003
-0.010500 0.145745 0.021319
-0.009750 0.145736 0.021002
-0.010625 0.146843 0.021635
-0.009625 0.146830 0.021191
-0.008750 0.147185 0.020873
-0.009750 0.147929 0.021570
-0.008750 0.147920 0.021189
-0.007750 0.147913 0.020935
-0.052250 0.148641 0.020998
-0.051750 0.148647 0.021252
-0.010250 0.148661 0.021759
-0.009500 0.148658 0.021632
-0.008500 0.148651 0.021379
-0.007500 0.148644 0.021125
-0.006500 0.148639 0.020934
-0.005750 0.148637 0.020871
-0.010250 0.150112 0.021757
-0.009625 0.149747 0.021663
-0.008625 0.149744 0.021536
-0.007625 0.149739 0.021345
-0.006625 0.149736 0.021250
-0.005625 0.149732 0.021091
-0.004625 0.149729 0.020964
-0.003500 0.150093 0.020996
-0.002500 0.150091 0.020932
-0.010500 0.150838 0.021756
-0.009750 0.150836 0.021693
-0.008750 0.150835 0.021629
-0.007750 0.150832 0.021502
-0.006750 0.150830 0.021439
-0.005750 0.150828 0.021375
-0.004750 0.150825 0.021249
-0.003750 0.150825 0.021249
-0.002750 0.150822 0.021122
-0.001750 0.150819 0.020995
-0.000750 0.150819 0.020995
0.000250 0.150816 0.020868
-0.011250 0.151563 0.021755
-0.010500 0.151560 0.021628
-0.009500 0.151560 0.021628
-0.008500 0.151560 0.021628
-0.007500 0.151560 0.021628
-0.006500 0.151558 0.021565
-0.005500 0.151556 0.021438
-0.004500 0.151554 0.021374
-0.003500 0.151554 0.021374
-0.002500 0.151552 0.021311
-0.001500 0.151551 0.021248
-0.000750 0.151551 0.021248
0.000250 0.151547 0.021078
0.001500 0.151545 0.020994
0.002500 0.151543 0.020930
0.003500 0.151542 0.020867
-0.045750 0.153015 0.021753
-0.013250 0.153012 0.021626
-0.012500 0.152768 0.021542
-0.011625 0.152644 0.021405
-0.010625 0.152644 0.021405
-0.009625 0.152647 0.021532
-0.008625 0.152647 0.021532
-0.007625 0.152649 0.021627
-0.006625 0.152649 0.021627
-0.005625 0.152648 0.021595
-0.004625 0.152649 0.021627
-0.003625 0.152649 0.021627
-0.002625 0.152647 0.021563
-0.001625 0.152648 0.021595
-0.000750 0.152524 0.021458
0.000250 0.152719 0.021500
0.001375 0.152643 0.021373
0.002375 0.152643 0.021373
0.003375 0.152642 0.021341
0.004375 0.152641 0.021278
0.005375 0.152640 0.021214
0.006250 0.152515 0.021035
0.007188 0.152820 0.021182
0.008500 0.153002 0.021182
0.009500 0.152998 0.020992
0.010250 0.152995 0.020865
-0.014500 0.153738 0.021625
-0.013750 0.153729 0.021244
-0.012750 0.153726 0.021054
-0.011750 0.153724 0.020991
-0.010750 0.153726 0.021054
-0.009750 0.153729 0.021244
-0.008750 0.153732 0.021371
-0.007750 0.153737 0.021562
-0.006750 0.153738 0.021625
-0.005750 0.153738 0.021625
-0.004750 0.153740 0.021689
-0.003750 0.153741 0.021752
-0.003000 0.153741 0.021752
0.000500 0.153741 0.021752
0.001250 0.153741 0.021752
0.002250 0.153741 0.021752
0.003250 0.153741 0.021752
0.004250 0.153741 0.021752
0.005250 0.153741 0.021752
0.006250 0.153741 0.021752
0.007250 0.153741 0.021752
0.008250 0.153738 0.021625
0.009250 0.153738 0.021625
0.010250 0.153737 0.021562
0.011250 0.153732 0.021371
0.012250 0.153728 0.021181
0.013000 0.153721 0.020864
-0.039500 0.155179 0.021116
-0.017500 0.155189 0.021623
-0.016750 0.155181 0.021242
-0.015500 0.154460 0.021434
-0.014500 0.154449 0.020926
-0.010500 0.154449 0.020926
-0.009500 0.154692 0.020989
-0.008625 0.154817 0.021179
-0.007625 0.154820 0.021338
-0.006625 0.154821 0.021370
-0.005625 0.154819 0.021243
-0.004625 0.154819 0.021275
-0.003625 0.154822 0.021433
-0.002750 0.155190 0.021687
0.013500 0.154465 0.021688
0.014500 0.154463 0.021561
0.015500 0.154458 0.021370
0.016250 0.154450 0.020990
0.017250 0.155187 0.021496
0.018250 0.155184 0.021369
0.019000 0.155181 0.021242
-0.020250 0.155913 0.021495
-0.019500 0.155911 0.021432
-0.018500 0.155906 0.021178
-0.017750 0.155900 0.020861
-0.008500 0.155901 0.020924
-0.007500 0.155905 0.021114
-0.006500 0.155906 0.021178
-0.005500 0.155900 0.020861
-0.002500 0.155905 0.021114
-0.001750 0.155918 0.021749
0.020750 0.155913 0.021495
0.021250 0.155902 0.020987
-0.023000 0.156628 0.020986
-0.007750 0.156627 0.020923
-0.006750 0.156628 0.020986
-0.005750 0.156627 0.020923
-0.001000 0.156634 0.021240
0.023500 0.156639 0.021494
-0.006500 0.157353 0.020922
-0.005625 0.157716 0.020890
-0.005000 0.158078 0.020858
0.000750 0.157364 0.021493
0.006000 0.159554 0.020855
0.007750 0.160292 0.020853
0.008500 0.160298 0.021234
0.009500 0.160298 0.021234
0.010375 0.160668 0.021233
0.011250 0.161032 0.020979
0.012250 0.161037 0.021296
0.013000 0.161040 0.021487
0.032750 0.160307 0.021742
0.034000 0.161038 0.021360
0.013500 0.161770 0.020977
0.014500 0.161775 0.021295
0.015500 0.161780 0.021612
0.034750 0.161780 0.021612
0.035250 0.161772 0.021104
0.015500 0.162505 0.020849
0.016250 0.162507 0.020976
0.017250 0.162513 0.021357
0.018250 0.162518 0.021674
0.035500 0.162517 0.021611
0.036000 0.162513 0.021357
0.019250 0.163246 0.021059
0.020500 0.163250 0.021292
0.021500 0.163253 0.021546
0.022375 0.163619 0.021323
0.023250 0.163985 0.021164
0.024250 0.163987 0.021290
0.025250 0.163990 0.021481
0.026000 0.163994 0.021735
0.036500 0.163496 0.021313
0.037250 0.163983 0.021037
0.025250 0.164719 0.020845
0.026250 0.164722 0.021056
0.027500 0.164726 0.021352
0.028250 0.164729 0.021606
0.029000 0.164730 0.021670
0.036750 0.164727 0.021479
0.037500 0.164723 0.021099
0.028500 0.165459 0.020970
0.029250 0.165460 0.021034
0.030250 0.165462 0.021288
0.031375 0.165832 0.021319
0.032125 0.165834 0.021477
0.033000 0.166200 0.021286
0.034250 0.166203 0.021519
0.035500 0.166202 0.021477
0.036375 0.165835 0.021541
0.037375 0.165831 0.021223
0.038000 0.165459 0.020970
0.034250 0.166933 0.020841
0.035250 0.166934 0.020968
0.036250 0.166934 0.020968
0.037250 0.166933 0.020841
-0.046750 0.080175 0.022366
-0.047250 0.080883 0.022365
-0.047500 0.081621 0.022745
-0.048750 0.090843 0.021859
-0.048625 0.092671 0.022244
-0.048750 0.093742 0.022119
-0.048750 0.095200 0.022377
-0.048500 0.095946 0.022760
-0.048375 0.097720 0.022382
-0.048000 0.098783 0.022130
-0.047750 0.099511 0.022259
-0.047375 0.100612 0.022579
-0.046500 0.104536 0.022015
-0.046250 0.105256 0.022016
-0.003750 0.129832 0.022802
-0.004500 0.130557 0.022801
-0.004000 0.130527 0.022039
-0.005375 0.131628 0.022355
-0.006250 0.132714 0.022290
-0.007250 0.134155 0.022034
-0.007000 0.133444 0.022416
-0.008000 0.134899 0.022541
-0.008250 0.135615 0.022286
-0.008625 0.136704 0.022284
-0.009000 0.137792 0.022283
-0.009250 0.138517 0.022282
-0.010250 0.139981 0.022660
-0.009750 0.139492 0.022492
-0.010500 0.140706 0.022659
-0.010000 0.140694 0.022279
-0.010625 0.141786 0.022404
-0.011250 0.142882 0.022656
-0.010750 0.142870 0.022275
-0.011500 0.143603 0.022528
-0.010750 0.143589 0.022084
-0.012500 0.145061 0.022780
-0.011625 0.144684 0.022305
-0.012500 0.145781 0.022589
-0.011500 0.145764 0.022017
-0.012500 0.146511 0.022778
-0.011750 0.146498 0.022270
-0.053250 0.147223 0.022269
-0.052500 0.147941 0.022014
-0.052000 0.147948 0.022268
-0.012250 0.147233 0.022650
-0.011625 0.147589 0.022396
-0.010750 0.147940 0.021951
-0.012250 0.148687 0.022775
-0.011500 0.148677 0.022394
-0.010750 0.148667 0.022013
-0.012250 0.150134 0.022646
-0.011625 0.149764 0.022361
-0.010750 0.149633 0.021970
-0.012750 0.150859 0.022645
-0.011750 0.150847 0.022137
-0.011000 0.150841 0.021883
-0.013250 0.151581 0.022517
-0.012500 0.151574 0.022200
-0.011750 0.151566 0.021882
-0.046750 0.152310 0.022643
-0.014500 0.153028 0.022324
-0.013750 0.152543 0.022262
-0.013000 0.152295 0.022008
-0.015500 0.153755 0.022387
-0.015000 0.153743 0.021879
-0.002500 0.153743 0.021879
-0.001750 0.153743 0.021879
-0.000750 0.153743 0.021879
0.000000 0.153743 0.021879
-0.042500 0.154475 0.022132
-0.018750 0.155206 0.022385
-0.018000 0.155195 0.021877
-0.016500 0.154474 0.022132
-0.002500 0.154471 0.021942
-0.001625 0.154834 0.022005
-0.000750 0.154959 0.022174
0.000250 0.154767 0.022233
0.001375 0.154840 0.022258
0.002375 0.154840 0.022258
0.003375 0.154839 0.022227
0.004375 0.154838 0.022163
0.005375 0.154838 0.022163
0.006250 0.154961 0.022258
0.007250 0.154765 0.022157
0.008375 0.154840 0.022258
0.009375 0.154839 0.022227
0.010250 0.154963 0.022343
0.011250 0.154766 0.022182
0.012375 0.154839 0.022195
0.013250 0.155207 0.022448
0.014250 0.155207 0.022448
0.015250 0.155204 0.022321
0.016250 0.155198 0.022067
-0.037250 0.155933 0.022511
-0.022500 0.155935 0.022574
-0.021500 0.155931 0.022384
-0.020750 0.155931 0.022384
-0.001250 0.155923 0.022003
-0.000750 0.155926 0.022130
0.000250 0.155932 0.022426
0.001500 0.155936 0.022638
0.002500 0.155937 0.022701
0.003500 0.155936 0.022638
0.004500 0.155939 0.022765
0.005500 0.155939 0.022765
0.006250 0.155939 0.022765
0.007250 0.155939 0.022765
0.008250 0.155939 0.022765
0.009250 0.155939 0.022765
0.017250 0.155939 0.022765
0.018000 0.155932 0.022447
0.019250 0.155931 0.022384
0.020250 0.155928 0.022257
-0.027500 0.156659 0.022510
-0.025750 0.156655 0.022319
-0.000500 0.156646 0.021875
0.000250 0.156653 0.022256
0.001250 0.156661 0.022637
0.002000 0.156664 0.022764
0.021250 0.156662 0.022637
0.022250 0.156656 0.022383
0.023000 0.156654 0.022256
0.001500 0.157382 0.022382
0.002375 0.157747 0.022508
0.003000 0.158109 0.022508
0.024750 0.157386 0.022636
0.025250 0.157384 0.022509
0.026500 0.158114 0.022761
0.027250 0.158103 0.022190
0.004250 0.158844 0.022379
0.029000 0.158847 0.022570
0.006500 0.159576 0.022124
0.030250 0.159586 0.022695
0.031000 0.159576 0.022124
0.013500 0.161046 0.021867
0.014250 0.161054 0.022311
0.031500 0.160322 0.022630
0.032375 0.160686 0.022376
0.033250 0.161050 0.022121
0.016500 0.161786 0.021993
0.017250 0.161794 0.022500
0.017750 0.161798 0.022754
0.033000 0.161796 0.022627
0.034000 0.161789 0.022183
0.019250 0.162522 0.021928
0.020250 0.162525 0.022118
0.021250 0.162529 0.022436
0.022250 0.162533 0.022689
0.023000 0.162534 0.022753
0.034250 0.162529 0.022436
0.035000 0.162521 0.021864
0.023500 0.163259 0.021926
0.024500 0.163263 0.022244
0.025250 0.163265 0.022371
0.026167 0.163511 0.022370
0.027250 0.163998 0.022052
0.028250 0.164001 0.022306
0.029000 0.164004 0.022496
0.033500 0.164008 0.022750
0.034375 0.163637 0.022560
0.035375 0.163630 0.022084
0.036000 0.163995 0.021862
0.029750 0.164734 0.021987
0.030500 0.164736 0.022114
0.031500 0.164740 0.022431
0.032250 0.164741 0.022495
0.033000 0.164743 0.022622
0.034250 0.164740 0.022452
0.035500 0.164736 0.022114
0.036250 0.164733 0.021860
0.032500 0.165471 0.021986
0.033250 0.165472 0.022049
0.034250 0.165472 0.022049
0.035250 0.165471 0.021922
-0.048000 0.093076 0.022881
-0.048250 0.093832 0.023392
-0.048500 0.094533 0.023139
-0.048250 0.096726 0.023652
-0.047000 0.101728 0.023153
-0.046750 0.102447 0.023155
-0.046000 0.104629 0.023541
-0.003500 0.129133 0.023438
-0.003000 0.129128 0.023311
-0.004250 0.129863 0.023564
-0.005000 0.130578 0.023309
-0.006500 0.132037 0.023561
-0.005875 0.131660 0.023180
-0.006750 0.132743 0.023052
-0.007625 0.133835 0.023177
-0.008375 0.134574 0.023557
-0.008750 0.135652 0.023302
-0.009500 0.136868 0.023511
-0.009000 0.136372 0.023174
-0.009750 0.137829 0.023362
-0.010250 0.138560 0.023551
-0.009750 0.138539 0.022916
-0.011250 0.140018 0.023803
-0.010625 0.139643 0.023423
-0.011500 0.140738 0.023675
-0.011000 0.140726 0.023294
-0.011625 0.141817 0.023420
-0.012250 0.142912 0.023672
-0.011750 0.142897 0.023164
-0.012500 0.143633 0.023544
-0.012000 0.143618 0.023036
-0.013375 0.144722 0.023606
-0.012667 0.144587 0.023119
-0.013500 0.145802 0.023350
-0.053000 0.146532 0.023540
-0.013500 0.146532 0.023540
-0.013000 0.146518 0.023032
-0.052500 0.147242 0.022967
-0.013375 0.147620 0.023538
-0.012750 0.147728 0.023073
-0.013250 0.148707 0.023537
-0.012750 0.148697 0.023156
-0.013500 0.149912 0.023450
-0.012750 0.149660 0.023027
-0.013750 0.150877 0.023343
-0.047500 0.151607 0.023596
-0.014250 0.151603 0.023405
-0.013750 0.151594 0.023025
-0.015500 0.153051 0.023340
-0.014750 0.152324 0.023278
-0.043500 0.153785 0.023783
-0.016500 0.153777 0.023402
-0.016000 0.153766 0.022895
-0.017500 0.154499 0.023274
-0.037750 0.155941 0.022891
-0.036500 0.155951 0.023336
-0.023500 0.155948 0.023209
-0.020500 0.155235 0.023781
-0.019750 0.155232 0.023654
0.008750 0.155941 0.022891
0.009750 0.155941 0.022891
0.010250 0.155941 0.022891
0.011250 0.155943 0.022976
0.012500 0.155945 0.023082
0.013500 0.155944 0.023018
0.014500 0.155945 0.023082
0.015500 0.155942 0.022955
0.016500 0.155941 0.022891
0.002500 0.156666 0.022891
0.003250 0.156666 0.022891
0.004250 0.156669 0.023017
0.005250 0.156671 0.023144
0.006250 0.156671 0.023144
0.007250 0.156671 0.023144
0.008250 0.156674 0.023271
0.009250 0.156674 0.023271
0.010250 0.156676 0.023398
0.011250 0.156679 0.023525
0.012250 0.156679 0.023525
0.013250 0.156681 0.023652
0.014250 0.156681 0.023652
0.015250 0.156682 0.023716
0.016250 0.156680 0.023589
0.017250 0.156679 0.023525
0.018250 0.156677 0.023398
0.019250 0.156673 0.023208
0.020250 0.156669 0.023017
0.002750 0.157391 0.022889
0.003500 0.157635 0.023016
0.004375 0.157759 0.023143
0.005375 0.157763 0.023397
0.006250 0.157888 0.023566
0.007188 0.157587 0.023619
0.008500 0.157407 0.023714
0.009250 0.157409 0.023778
0.020250 0.157409 0.023778
0.021500 0.157407 0.023651
0.022500 0.157398 0.023207
0.023500 0.157640 0.023270
0.024250 0.157883 0.023354
0.025250 0.158123 0.023206
0.026000 0.158119 0.023015
0.004750 0.158853 0.022887
0.005500 0.158857 0.023141
0.006250 0.158862 0.023395
0.007000 0.158868 0.023712
0.026250 0.158866 0.023606
0.027500 0.158860 0.023268
0.028250 0.158855 0.023014
0.007250 0.159594 0.023139
0.008250 0.159601 0.023520
0.009000 0.159605 0.023774
0.028250 0.159602 0.023584
0.029250 0.159595 0.023203
0.011000 0.160337 0.023519
0.015250 0.161071 0.023390
0.029250 0.160340 0.023688
0.030500 0.160579 0.023307
0.031250 0.161069 0.023263
0.032000 0.161063 0.022883
0.018250 0.161802 0.023008
0.019250 0.161803 0.023050
0.020500 0.161808 0.023389
0.021500 0.161812 0.023643
0.030750 0.161814 0.023770
0.031500 0.161809 0.023452
0.032250 0.161802 0.023008
0.023500 0.162536 0.022880
0.024250 0.162541 0.023197
0.025250 0.162548 0.023641
0.031250 0.162549 0.023705
0.032250 0.162544 0.023387
0.033250 0.162537 0.022943
0.026750 0.163273 0.022878
0.027500 0.163276 0.023069
0.028250 0.163280 0.023386
0.029313 0.163465 0.023417
0.030375 0.163647 0.023258
0.031375 0.163647 0.023290
0.032250 0.163768 0.023173
0.033000 0.163521 0.023047
0.033750 0.163273 0.022878
-0.047875 0.082794 0.024143
-0.048250 0.083875 0.024396
-0.048500 0.084543 0.023887
-0.048750 0.086687 0.024014
-0.048000 0.094587 0.023902
-0.048250 0.095306 0.023903
-0.047750 0.095817 0.024371
-0.047750 0.096804 0.024797
-0.047875 0.097822 0.023908
-0.047250 0.099653 0.024421
-0.047000 0.100380 0.024549
-0.046375 0.103574 0.023920
-0.004750 0.129883 0.024072
-0.005750 0.130626 0.024515
-0.006667 0.131592 0.024535
-0.007500 0.132791 0.024322
-0.008500 0.133534 0.024829
-0.008000 0.133515 0.024321
-0.009500 0.134982 0.024827
-0.008875 0.134611 0.024573
-0.009500 0.135686 0.024254
-0.010250 0.137137 0.024315
-0.010000 0.136417 0.024443
-0.010750 0.137870 0.024568
-0.011250 0.138594 0.024567
-0.010750 0.138577 0.024059
-0.012250 0.140051 0.024819
-0.011625 0.139672 0.024312
-0.011000 0.139297 0.023931
-0.012500 0.140775 0.024818
-0.012000 0.140755 0.024183
-0.012500 0.141727 0.024393
-0.013250 0.142943 0.024688
-0.012875 0.142574 0.024434
-0.013750 0.143665 0.024623
-0.013000 0.143645 0.023925
-0.014625 0.144751 0.024590
-0.013875 0.144736 0.024050
-0.053500 0.145830 0.024366
-0.014500 0.145827 0.024239
-0.053500 0.146543 0.023921
-0.014500 0.146560 0.024556
-0.014000 0.146543 0.023921
-0.014500 0.147528 0.024639
-0.013875 0.147633 0.024046
-0.050750 0.148716 0.023917
-0.014250 0.148730 0.024425
-0.013750 0.148716 0.023917
-0.048750 0.150188 0.024804
-0.014500 0.149935 0.024339
-0.014000 0.149444 0.024043
-0.048500 0.150896 0.024168
-0.048000 0.150902 0.024422
-0.014750 0.150899 0.024295
-0.015500 0.151630 0.024548
-0.014750 0.151615 0.023913
-0.045250 0.153084 0.024800
-0.044750 0.153084 0.024800
-0.016500 0.153075 0.024419
-0.015750 0.152348 0.024293
-0.043000 0.153791 0.024037
-0.017500 0.153802 0.024545
-0.017000 0.153791 0.024037
-0.018250 0.154518 0.024163
-0.038750 0.155251 0.024543
-0.038000 0.155251 0.024543
-0.035500 0.155969 0.024224
-0.034750 0.155967 0.024161
-0.033750 0.155977 0.024669
-0.032500 0.155977 0.024669
-0.025500 0.155978 0.024669
-0.024500 0.155966 0.024097
-0.021500 0.155253 0.024670
0.007500 0.158136 0.023904
0.008250 0.158137 0.023967
0.009417 0.157896 0.024031
0.010250 0.157899 0.024158
0.011250 0.157705 0.024133
0.012375 0.157780 0.024285
0.013375 0.157782 0.024380
0.014375 0.157784 0.024476
0.015375 0.157784 0.024507
0.016375 0.157784 0.024476
0.017250 0.157906 0.024539
0.018125 0.157784 0.024444
0.019250 0.157707 0.024260
0.020417 0.157902 0.024327
0.021250 0.158146 0.024475
0.022250 0.158139 0.024094
0.023000 0.158138 0.024031
0.007750 0.158872 0.023902
0.008500 0.158874 0.024029
0.009500 0.158877 0.024220
0.010250 0.158881 0.024410
0.011250 0.158884 0.024579
0.012500 0.158888 0.024791
0.022500 0.158886 0.024727
0.023500 0.158882 0.024474
0.024500 0.158877 0.024220
0.025250 0.158874 0.024029
0.009500 0.159608 0.023901
0.010250 0.159613 0.024218
0.011250 0.159617 0.024472
0.012250 0.159621 0.024663
0.013000 0.159623 0.024789
0.024500 0.159623 0.024789
0.025250 0.159620 0.024599
0.026250 0.159616 0.024409
0.027250 0.159609 0.023964
0.011750 0.160346 0.024026
0.012500 0.160350 0.024280
0.013500 0.160355 0.024598
0.014500 0.160356 0.024661
0.015250 0.160359 0.024788
0.016250 0.161082 0.024025
0.017250 0.161083 0.024088
0.018250 0.161087 0.024342
0.019250 0.161092 0.024659
0.020000 0.161094 0.024786
0.026500 0.160358 0.024724
0.027375 0.160723 0.024597
0.028250 0.160842 0.024364
0.029250 0.161083 0.024088
0.030000 0.161080 0.023898
0.022500 0.161818 0.024023
0.023500 0.161826 0.024531
0.024500 0.161828 0.024658
0.025250 0.161830 0.024785
0.026250 0.161829 0.024743
0.027500 0.161828 0.024658
0.028250 0.161826 0.024531
0.029250 0.161822 0.024277
0.030250 0.161818 0.024023
0.026250 0.162553 0.024022
0.027250 0.162556 0.024212
0.028250 0.162557 0.024276
0.029250 0.162555 0.024149
0.030250 0.162553 0.023959
-0.047000 0.081864 0.025798
-0.048000 0.084692 0.025796
-0.048375 0.085733 0.025540
-0.048500 0.087532 0.025670
-0.047250 0.096813 0.024924
-0.047500 0.097557 0.025307
-0.047000 0.097574 0.025561
-0.047375 0.098634 0.025309
-0.046750 0.101180 0.025823
-0.045750 0.105456 0.025322
-0.063000 0.124879 0.025603
-0.000250 0.128503 0.025725
-0.005500 0.129932 0.025278
-0.004000 0.129221 0.025597
-0.006500 0.130663 0.025468
-0.007375 0.131747 0.025403
-0.008250 0.132825 0.025211
-0.009000 0.133558 0.025464
-0.009625 0.134641 0.025398
-0.010250 0.135720 0.025206
-0.011250 0.137172 0.025331
-0.010750 0.136685 0.025205
-0.011750 0.137901 0.025457
-0.012250 0.138624 0.025456
-0.011750 0.138607 0.024948
-0.057750 0.140071 0.025454
-0.012625 0.139703 0.025264
-0.012000 0.139331 0.024947
-0.013500 0.140803 0.025707
-0.013000 0.140787 0.025199
-0.013500 0.141517 0.025388
-0.056500 0.142235 0.025197
-0.014500 0.142966 0.025450
-0.013750 0.142475 0.025154
-0.015500 0.143697 0.025702
-0.014750 0.143684 0.025258
-0.054625 0.144770 0.025256
-0.054000 0.145141 0.025573
-0.016250 0.144425 0.025828
-0.015625 0.144773 0.025352
-0.016250 0.145872 0.025826
-0.015500 0.145856 0.025255
-0.015750 0.146591 0.025698
-0.015000 0.146571 0.024936
-0.051750 0.147295 0.024935
-0.015500 0.147556 0.025697
-0.015000 0.148025 0.025188
-0.015250 0.148759 0.025568
-0.014750 0.148743 0.024933
-0.049583 0.149719 0.025355
-0.015500 0.149960 0.025355
-0.015000 0.149470 0.025059
-0.015750 0.150921 0.025184
-0.016500 0.151653 0.025500
-0.045750 0.152376 0.025499
-0.044250 0.153098 0.025434
-0.017500 0.153098 0.025435
-0.016750 0.152371 0.025309
-0.042500 0.153825 0.025560
-0.018500 0.153827 0.025687
-0.018000 0.153813 0.025053
-0.041250 0.154537 0.025052
-0.040500 0.154545 0.025369
-0.039500 0.154551 0.025686
-0.019250 0.154548 0.025559
-0.018750 0.154537 0.025052
-0.037500 0.155264 0.025177
-0.037000 0.155267 0.025304
-0.034250 0.155983 0.024922
-0.033250 0.155985 0.025049
-0.031500 0.155991 0.025367
-0.030750 0.155996 0.025557
-0.029500 0.155997 0.025621
-0.028750 0.156001 0.025811
-0.027500 0.155997 0.025621
-0.026750 0.155990 0.025303
-0.026250 0.155988 0.025176
-0.022000 0.155264 0.025177
-0.021000 0.155261 0.025051
0.013500 0.158890 0.024918
0.014500 0.158891 0.024981
0.015500 0.158892 0.025045
0.016500 0.158893 0.025108
0.017250 0.158895 0.025172
0.018000 0.158895 0.025172
0.019250 0.158895 0.025172
0.020500 0.158892 0.025045
0.021500 0.158890 0.024918
0.013500 0.159625 0.024916
0.014250 0.159626 0.024980
0.015250 0.159629 0.025107
0.016250 0.159631 0.025234
0.017250 0.159633 0.025361
0.018250 0.159632 0.025297
0.019250 0.159634 0.025424
0.020250 0.159632 0.025297
0.021250 0.159631 0.025234
0.022250 0.159631 0.025234
0.023250 0.159626 0.024980
0.024000 0.159625 0.024916
0.015750 0.160361 0.024915
0.016500 0.160363 0.025042
0.017250 0.160363 0.025042
0.018000 0.160365 0.025169
0.019250 0.160366 0.025253
0.020500 0.160610 0.025168
0.021375 0.160733 0.025168
0.022375 0.160733 0.025168
0.023375 0.160733 0.025168
0.024375 0.160731 0.025073
0.025250 0.160852 0.024998
0.026083 0.160852 0.024956
-0.046000 0.080480 0.026182
-0.047250 0.082581 0.025925
-0.047625 0.083657 0.026115
-0.047500 0.084762 0.026686
-0.047875 0.085827 0.026749
-0.048250 0.086834 0.025923
-0.048500 0.088987 0.025927
-0.047000 0.099035 0.025946
-0.046750 0.099803 0.026710
-0.046500 0.100520 0.026711
-0.046000 0.100520 0.026711
-0.046375 0.101567 0.026268
-0.046000 0.101955 0.026714
-0.046250 0.102632 0.026080
-0.045875 0.103720 0.026272
-0.061000 0.114838 0.026230
-0.062250 0.117004 0.026488
-0.062000 0.116267 0.026105
-0.063000 0.119168 0.026746
-0.063250 0.121314 0.026623
-0.063250 0.122755 0.026623
-0.062750 0.125619 0.025983
-0.062500 0.126359 0.026363
-0.002250 0.128539 0.026614
-0.001500 0.128539 0.026614
-0.000750 0.128513 0.025979
0.000500 0.128521 0.026170
-0.006500 0.129970 0.026231
-0.005750 0.129259 0.026549
-0.004750 0.129237 0.025978
-0.007500 0.130703 0.026484
-0.007000 0.130683 0.025976
-0.008375 0.131793 0.026609
-0.007875 0.131771 0.026038
-0.009250 0.132883 0.026734
-0.008750 0.132854 0.025973
-0.009500 0.133591 0.026353
-0.010375 0.134681 0.026478
-0.009750 0.134300 0.025970
-0.011250 0.135765 0.026476
-0.010750 0.135747 0.025968
-0.012250 0.137207 0.026347
-0.011750 0.136719 0.026178
-0.012750 0.137929 0.026282
-0.013250 0.138654 0.026345
-0.012750 0.138641 0.025964
-0.014250 0.140108 0.026597
-0.013625 0.139737 0.026280
-0.013000 0.139360 0.025836
-0.014500 0.140832 0.026595
-0.014000 0.140815 0.026088
-0.056750 0.141535 0.025960
-0.015250 0.141559 0.026721
-0.014500 0.141541 0.026150
-0.055750 0.143005 0.026719
-0.016500 0.142999 0.026529
-0.015625 0.142632 0.026339
-0.014750 0.142260 0.026022
-0.055000 0.143720 0.026464
-0.016750 0.143721 0.026464
-0.016000 0.143705 0.025956
-0.054250 0.144432 0.026082
-0.016750 0.144921 0.026293
-0.016750 0.145886 0.026334
-0.016500 0.146609 0.026333
-0.051000 0.148066 0.026711
-0.016500 0.147579 0.026543
-0.016000 0.148052 0.026204
-0.050250 0.148782 0.026457
-0.016250 0.148782 0.026457
-0.015750 0.148769 0.025949
-0.016500 0.149505 0.026455
-0.016000 0.149496 0.026075
-0.048250 0.150228 0.026454
-0.047500 0.150961 0.026834
-0.016625 0.150585 0.026232
-0.046500 0.151671 0.026262
-0.017500 0.151678 0.026579
-0.044750 0.152398 0.026451
-0.043500 0.153120 0.026387
-0.018500 0.153122 0.026513
-0.017750 0.152397 0.026388
-0.041750 0.153844 0.026449
-0.040750 0.153843 0.026385
-0.019500 0.153850 0.026703
-0.019000 0.153841 0.026322
-0.038500 0.154571 0.026575
-0.020250 0.154567 0.026448
-0.019750 0.154556 0.025940
-0.036500 0.155280 0.025939
-0.035750 0.155284 0.026129
-0.034750 0.155289 0.026383
-0.034000 0.155296 0.026701
-0.030250 0.156003 0.025938
-0.028250 0.156006 0.026065
-0.026500 0.155293 0.026574
-0.024750 0.155297 0.026764
-0.023750 0.155291 0.026510
-0.022750 0.155288 0.026320
-0.041750 0.072788 0.027206
-0.042750 0.074223 0.027459
-0.044250 0.077049 0.027456
-0.044000 0.076343 0.027457
-0.044750 0.078442 0.027201
-0.046375 0.081606 0.027007
-0.046750 0.082682 0.027197
-0.047250 0.084075 0.026942
-0.047000 0.083388 0.027197
-0.048250 0.088375 0.027325
-0.048000 0.091978 0.027586
-0.046625 0.098757 0.027153
-0.046250 0.099820 0.026965
-0.045625 0.101628 0.027222
-0.045750 0.102696 0.027097
-0.045500 0.103445 0.027607
-0.045500 0.104847 0.027101
-0.045500 0.106311 0.027612
-0.046500 0.107737 0.027487
-0.061250 0.115635 0.027756
-0.061750 0.117023 0.026869
-0.062500 0.117740 0.026870
-0.062500 0.118483 0.027380
-0.062625 0.119570 0.027636
-0.063000 0.120621 0.027129
-0.062875 0.121708 0.027385
-0.062750 0.122801 0.027639
-0.062750 0.123509 0.027320
-0.062625 0.124588 0.027192
-0.062250 0.125697 0.027762
-0.062000 0.126419 0.027760
0.000250 0.127843 0.027250
0.001000 0.127837 0.027123
-0.005500 0.128581 0.027630
-0.004500 0.128578 0.027567
-0.003500 0.128574 0.027440
-0.002750 0.128571 0.027376
-0.007500 0.129770 0.027247
-0.006750 0.129288 0.027248
-0.008500 0.130749 0.027627
-0.008000 0.130729 0.027119
-0.009500 0.132194 0.027625
-0.008875 0.131815 0.027181
-0.010250 0.132921 0.027750
-0.009750 0.132897 0.027115
-0.010500 0.133629 0.027368
-0.010000 0.133610 0.026860
-0.011375 0.134721 0.027557
-0.010875 0.134697 0.026922
-0.012250 0.135802 0.027492
-0.011750 0.135779 0.026857
-0.012750 0.136520 0.027364
-0.013625 0.137603 0.027331
-0.012750 0.137225 0.026855
-0.014500 0.138690 0.027424
-0.013750 0.138671 0.026853
-0.015500 0.140142 0.027612
-0.014750 0.139649 0.027275
-0.057000 0.140864 0.027611
-0.015750 0.140856 0.027357
-0.015000 0.140840 0.026850
-0.016500 0.141581 0.027420
-0.015750 0.141567 0.026975
-0.055625 0.142660 0.027291
-0.017500 0.142789 0.027566
-0.016750 0.142295 0.027165
-0.054500 0.143754 0.027607
-0.017500 0.143747 0.027353
-0.053500 0.145181 0.026970
-0.017625 0.144831 0.027351
-0.052750 0.145911 0.027223
-0.017500 0.145909 0.027159
-0.017750 0.146641 0.027475
-0.017000 0.146623 0.026841
-0.017500 0.147604 0.027474
-0.017000 0.148072 0.026966
-0.017250 0.148805 0.027345
-0.016750 0.148792 0.026837
-0.049000 0.149534 0.027598
-0.017500 0.149534 0.027598
-0.017000 0.149518 0.026963
-0.046750 0.150979 0.027596
-0.017625 0.150609 0.027247
-0.045500 0.151696 0.027341
-0.018250 0.151696 0.027341
-0.043750 0.152424 0.027594
-0.042500 0.153137 0.027148
-0.041500 0.153149 0.027656
-0.019250 0.153141 0.027339
-0.018750 0.152420 0.027403
-0.039750 0.153866 0.027464
-0.020000 0.153864 0.027338
-0.037500 0.154581 0.027082
-0.036750 0.154592 0.027590
-0.021250 0.154589 0.027463
-0.020750 0.154581 0.027082
-0.033500 0.155312 0.027462
-0.032750 0.155308 0.027272
-0.031750 0.155308 0.027272
-0.030750 0.155314 0.027589
-0.029750 0.155314 0.027589
-0.028750 0.155309 0.027335
-0.027750 0.155309 0.027335
-0.027000 0.155301 0.026955
-0.025750 0.155307 0.027208
-0.037250 0.068646 0.028352
-0.038750 0.070081 0.028605
-0.039500 0.070798 0.028732
-0.040250 0.071439 0.027969
-0.043000 0.075003 0.028348
-0.043250 0.075730 0.028601
-0.045250 0.079967 0.028599
-0.045000 0.079241 0.028345
-0.046000 0.082046 0.028088
-0.046250 0.082762 0.028215
-0.046625 0.083836 0.028405
-0.047000 0.084911 0.028595
-0.047250 0.085617 0.028595
-0.047625 0.086652 0.028213
-0.048000 0.087707 0.027960
-0.047875 0.088810 0.028344
-0.048250 0.089847 0.027837
-0.047750 0.089903 0.028601
-0.048000 0.090582 0.028093
-0.047750 0.091326 0.028476
-0.047750 0.092749 0.028351
-0.047625 0.093828 0.028417
-0.047500 0.094898 0.028355
-0.047250 0.095623 0.028483
-0.046875 0.096680 0.028231
-0.046500 0.097737 0.027978
-0.045000 0.102084 0.028749
-0.045250 0.102752 0.027987
-0.045250 0.104177 0.027862
-0.045000 0.103484 0.028243
-0.044875 0.104570 0.028435
-0.045250 0.105610 0.027865
-0.044750 0.105649 0.028501
-0.045500 0.107058 0.028122
-0.045000 0.106357 0.028375
-0.045750 0.107786 0.028314
-0.046500 0.108502 0.028315
-0.045750 0.108521 0.028633
-0.058000 0.112066 0.028004
-0.059500 0.113519 0.028387
-0.060375 0.114597 0.028453
-0.059750 0.114242 0.028516
-0.061500 0.116384 0.028392
-0.062000 0.117829 0.028649
-0.062250 0.119977 0.028653
-0.062500 0.120681 0.028400
-0.062500 0.122102 0.028148
-0.062250 0.122847 0.028655
-0.062250 0.124274 0.028272
-0.061750 0.125741 0.028778
-0.061750 0.127147 0.027886
-0.005500 0.127906 0.028774
-0.000500 0.127901 0.028647
-0.007500 0.128617 0.028519
-0.006500 0.128597 0.028011
-0.008500 0.129814 0.028348
-0.008000 0.129330 0.028264
-0.009500 0.130794 0.028770
-0.009000 0.130769 0.028135
-0.009500 0.131494 0.028197
-0.010625 0.132592 0.028576
-0.010000 0.132213 0.028133
-0.011500 0.133672 0.028511
-0.011000 0.133653 0.028003
-0.012583 0.134879 0.028594
-0.011875 0.134739 0.028065
-0.013500 0.135841 0.028571
-0.012750 0.135820 0.028000
-0.014500 0.136569 0.028761
-0.013750 0.136549 0.028189
-0.015500 0.138009 0.028632
-0.014625 0.137632 0.028156
-0.058250 0.138722 0.028376
-0.016250 0.138735 0.028757
-0.015500 0.138718 0.028249
-0.057250 0.140166 0.028374
-0.017250 0.140175 0.028628
-0.016500 0.139923 0.028290
-0.015750 0.139436 0.028121
-0.056500 0.140901 0.028754
-0.017750 0.140892 0.028500
-0.016750 0.140876 0.027992
-0.056250 0.141610 0.028372
-0.018250 0.141614 0.028499
-0.017500 0.141599 0.027991
-0.054750 0.143055 0.028370
-0.018375 0.142696 0.028434
-0.018000 0.142325 0.028117
-0.018500 0.143784 0.028623
-0.018000 0.143765 0.027988
-0.053750 0.144484 0.027860
-0.018500 0.144500 0.028431
-0.053000 0.145228 0.028620
-0.019250 0.145954 0.028746
-0.018625 0.145581 0.028334
-0.052000 0.146676 0.028745
-0.018750 0.146667 0.028428
-0.051250 0.147384 0.028236
-0.050500 0.148109 0.028362
-0.018500 0.147628 0.028363
-0.018000 0.148099 0.027981
-0.049750 0.148822 0.027980
-0.018500 0.148836 0.028551
-0.017750 0.148818 0.027853
-0.048500 0.149554 0.028360
-0.018500 0.149557 0.028487
-0.018000 0.149541 0.027852
-0.047500 0.150274 0.028295
-0.045750 0.151001 0.028484
-0.018625 0.150635 0.028295
-0.044500 0.151722 0.028420
-0.043750 0.151729 0.028737
-0.019250 0.151723 0.028483
-0.018750 0.151708 0.027849
-0.042750 0.152441 0.028292
-0.040750 0.153170 0.028608
-0.020250 0.153167 0.028481
-0.019625 0.152799 0.028164
-0.038750 0.153879 0.028036
-0.038000 0.153892 0.028607
-0.020750 0.153881 0.028099
-0.036250 0.154597 0.027844
-0.035500 0.154603 0.028098
-0.034750 0.154608 0.028352
-0.022500 0.154611 0.028479
-0.021750 0.154597 0.027844
-0.031500 0.065215 0.029497
-0.034500 0.066594 0.029115
-0.035625 0.067675 0.029368
-0.038000 0.069407 0.028986
-0.039750 0.071589 0.029747
-0.042000 0.073696 0.029619
-0.042250 0.074402 0.029619
-0.043625 0.076836 0.029173
-0.044000 0.077942 0.029744
-0.045500 0.080694 0.028853
-0.045750 0.081420 0.029106
-0.046500 0.084990 0.029614
-0.046750 0.085686 0.029486
-0.047250 0.087088 0.029232
-0.047000 0.086382 0.029358
-0.047500 0.087775 0.028851
-0.047375 0.089602 0.029364
-0.047500 0.090657 0.029111
-0.047000 0.090704 0.029747
-0.047375 0.091731 0.029113
-0.047250 0.092822 0.029369
-0.047250 0.094227 0.028990
-0.047000 0.094960 0.029245
-0.046750 0.095693 0.029501
-0.046250 0.098530 0.029124
-0.045875 0.099595 0.028999
-0.045500 0.100669 0.029001
-0.045250 0.101377 0.028875
-0.044625 0.101788 0.029702
-0.044500 0.102836 0.029322
-0.044500 0.103540 0.029133
-0.044375 0.104610 0.029071
-0.044000 0.104995 0.029517
-0.044250 0.105687 0.029136
-0.043750 0.105718 0.029645
-0.044500 0.106875 0.029054
-0.043750 0.106669 0.029604
-0.044750 0.107838 0.029204
-0.044000 0.107864 0.029648
-0.045250 0.108550 0.029141
-0.044500 0.108580 0.029650
-0.057500 0.112164 0.029783
-0.056250 0.111448 0.029782
-0.055750 0.111448 0.029782
-0.058750 0.112831 0.028894
-0.060750 0.115701 0.029026
-0.061250 0.117171 0.029791
-0.061000 0.116443 0.029536
-0.061500 0.117880 0.029665
-0.061750 0.118602 0.029794
-0.062250 0.121433 0.029163
-0.062000 0.122167 0.029545
-0.062000 0.123604 0.029416
-0.061750 0.124803 0.029329
-0.007750 0.127938 0.029536
-0.006750 0.127919 0.029092
-0.006000 0.127922 0.029155
-0.004750 0.127925 0.029219
-0.003750 0.127930 0.029346
-0.002750 0.127938 0.029536
-0.001750 0.127923 0.029155
-0.001000 0.127928 0.029282
-0.008500 0.128655 0.029408
-0.009500 0.130098 0.029406
-0.009000 0.129371 0.029280
-0.010000 0.130819 0.029405
-0.010500 0.131541 0.029404
-0.011500 0.132744 0.029402
-0.011000 0.132257 0.029275
-0.012500 0.133710 0.029527
-0.012000 0.133691 0.029019
-0.013583 0.134908 0.029398
-0.012750 0.134413 0.029018
-0.014500 0.135865 0.029270
-0.015500 0.136596 0.029523
-0.015000 0.136583 0.029142
-0.058500 0.138043 0.029647
-0.016583 0.137797 0.029478
-0.015667 0.137542 0.029056
-0.017500 0.138761 0.029519
-0.016750 0.138743 0.029011
-0.057500 0.139482 0.029518
-0.056750 0.140187 0.029009
-0.018500 0.139961 0.029475
-0.017750 0.139711 0.029179
-0.017000 0.139461 0.028883
-0.018750 0.140919 0.029325
-0.019250 0.141654 0.029769
-0.018750 0.141634 0.029134
-0.055500 0.142352 0.029006
-0.055000 0.142372 0.029641
-0.019250 0.143093 0.029639
-0.018875 0.142717 0.029132
-0.054000 0.143799 0.029130
-0.019500 0.143818 0.029765
-0.019000 0.143803 0.029257
-0.019500 0.144526 0.029320
-0.052250 0.145975 0.029508
-0.020250 0.145975 0.029508
-0.019750 0.145486 0.029212
-0.051500 0.146700 0.029634
-0.020500 0.146704 0.029761
-0.019750 0.146688 0.029189
-0.050750 0.147415 0.029379
-0.049750 0.148136 0.029378
-0.020250 0.147422 0.029633
-0.019625 0.147775 0.029346
-0.019000 0.148126 0.028997
-0.049250 0.148845 0.028869
-0.048750 0.148854 0.029250
-0.019500 0.148858 0.029376
-0.047750 0.149576 0.029248
-0.019500 0.149579 0.029375
-0.019000 0.149566 0.028867
-0.046500 0.150294 0.029120
-0.044750 0.151020 0.029310
-0.019625 0.150663 0.029405
-0.043250 0.151741 0.029245
-0.042750 0.151753 0.029753
-0.020250 0.151750 0.029626
-0.019750 0.151735 0.028991
-0.041750 0.152463 0.029244
-0.040250 0.153176 0.028862
-0.039500 0.153188 0.029433
-0.021250 0.153190 0.029497
-0.020625 0.152824 0.029307
-0.020000 0.152454 0.028863
-0.037500 0.153900 0.028988
-0.036750 0.153912 0.029559
-0.036000 0.153917 0.029749
-0.022500 0.153917 0.029749
-0.021750 0.153904 0.029178
-0.034250 0.154619 0.028860
-0.033500 0.154624 0.029114
-0.032250 0.154638 0.029748
-0.023500 0.154629 0.029304
-0.026750 0.063209 0.030767
-0.032750 0.066020 0.030639
-0.034750 0.067442 0.030765
-0.036750 0.068810 0.030257
-0.037500 0.069494 0.030002
-0.038625 0.070563 0.030129
-0.041250 0.073012 0.029874
-0.040625 0.072691 0.030255
-0.040000 0.072370 0.030636
-0.041500 0.073739 0.030127
-0.041000 0.073781 0.030636
-0.042500 0.075129 0.029873
-0.041875 0.074824 0.030445
-0.042750 0.075856 0.030127
-0.043000 0.076572 0.030253
-0.043375 0.077667 0.030698
-0.044250 0.078679 0.030125
-0.043750 0.078730 0.030761
-0.044625 0.079737 0.030125
-0.045000 0.080806 0.030252
-0.045375 0.081854 0.030124
-0.045750 0.082913 0.030124
-0.046000 0.083629 0.030250
-0.046250 0.084304 0.029868
-0.046000 0.085080 0.030759
-0.046250 0.085775 0.030631
-0.046625 0.086819 0.030377
-0.047000 0.087891 0.030379
-0.047250 0.088567 0.029871
-0.046750 0.088625 0.030635
-0.047000 0.089302 0.030127
-0.047000 0.092162 0.030131
-0.047000 0.093601 0.030261
-0.046625 0.094692 0.030517
-0.046375 0.096806 0.030075
-0.046000 0.097891 0.030268
-0.045750 0.098606 0.030269
-0.045375 0.099679 0.030271
-0.045000 0.100735 0.030018
-0.044250 0.101499 0.030782
-0.044000 0.102198 0.030529
-0.043750 0.102921 0.030658
-0.043750 0.103616 0.030341
-0.043500 0.104562 0.030236
-0.043000 0.105057 0.030534
-0.043250 0.105749 0.030153
-0.042750 0.105772 0.030535
-0.043250 0.107164 0.029902
-0.042625 0.106833 0.030346
-0.043500 0.107879 0.029903
-0.042750 0.107898 0.030221
-0.042000 0.107924 0.030666
-0.043500 0.108606 0.030095
-0.042500 0.108628 0.030476
-0.044500 0.109332 0.030287
-0.043750 0.109343 0.030477
-0.043000 0.109346 0.030541
-0.057000 0.112199 0.030418
-0.055250 0.111477 0.030290
-0.058250 0.112886 0.029911
-0.057750 0.112927 0.030674
-0.056500 0.112213 0.030672
-0.056000 0.112220 0.030800
-0.059000 0.113601 0.029912
-0.059625 0.114717 0.030740
-0.061750 0.119584 0.030388
-0.062000 0.120754 0.029924
-0.061750 0.121505 0.030687
-0.061750 0.122923 0.030306
-0.009583 0.127750 0.030764
-0.008625 0.127610 0.030299
-0.007500 0.127252 0.030363
-0.006500 0.127255 0.030427
-0.005750 0.127265 0.030680
-0.004250 0.127260 0.030553
-0.010250 0.128712 0.030805
-0.009500 0.128689 0.030234
-0.010500 0.129903 0.030549
-0.009750 0.129405 0.030105
-0.010750 0.130852 0.030230
-0.011500 0.131575 0.030293
-0.060750 0.133032 0.030671
-0.013250 0.133037 0.030798
-0.012500 0.132780 0.030375
-0.012000 0.132297 0.030291
-0.060500 0.133748 0.030543
-0.013500 0.133743 0.030416
-0.013000 0.133729 0.030035
-0.060250 0.134455 0.030161
-0.015500 0.135199 0.030795
-0.014625 0.134824 0.030383
-0.013750 0.134450 0.030034
-0.016250 0.135920 0.030794
-0.015500 0.135897 0.030159
-0.059000 0.136636 0.030666
-0.016750 0.136629 0.030475
-0.016000 0.136609 0.029904
-0.058750 0.137344 0.030283
-0.058000 0.138074 0.030536
-0.018500 0.138074 0.030536
-0.017625 0.137704 0.030251
-0.016750 0.137331 0.029902
-0.057750 0.138782 0.030154
-0.019250 0.138799 0.030662
-0.018500 0.138780 0.030091
-0.057000 0.139495 0.029899
-0.019500 0.139516 0.030534
-0.019000 0.139499 0.030026
-0.056000 0.140961 0.030659
-0.019625 0.140591 0.030342
-0.055500 0.141662 0.030023
-0.019750 0.141670 0.030276
-0.054250 0.143109 0.030147
-0.020250 0.143120 0.030528
-0.019750 0.142628 0.030148
-0.020750 0.143843 0.030591
-0.020000 0.143826 0.030019
-0.053250 0.144558 0.030399
-0.021250 0.144569 0.030780
-0.020500 0.144549 0.030082
-0.052500 0.145283 0.030525
-0.051750 0.146000 0.030397
-0.021250 0.146004 0.030524
-0.020750 0.145509 0.030017
-0.051000 0.146718 0.030268
-0.021500 0.146728 0.030649
-0.021000 0.146711 0.030015
-0.050250 0.147428 0.029887
-0.049000 0.148170 0.030647
-0.021500 0.147688 0.030606
-0.020750 0.147916 0.030140
-0.048250 0.148878 0.030138
-0.021250 0.148894 0.030773
-0.020500 0.148879 0.030202
-0.046750 0.149600 0.030200
-0.020750 0.149607 0.030454
-0.020000 0.149592 0.029883
-0.045500 0.150321 0.030199
-0.043750 0.151049 0.030452
-0.020625 0.150685 0.030326
-0.042250 0.151768 0.030388
-0.041750 0.151774 0.030641
-0.021250 0.151774 0.030641
-0.020750 0.151759 0.030007
-0.040750 0.152481 0.030069
-0.040000 0.152495 0.030640
-0.038750 0.153204 0.030131
-0.021750 0.152729 0.030386
-0.021000 0.152477 0.029879
-0.038250 0.153210 0.030385
-0.037750 0.153213 0.030512
-0.035500 0.153931 0.030384
-0.023500 0.153934 0.030511
-0.022667 0.153450 0.030385
-0.032750 0.154644 0.030002
-0.031500 0.154655 0.030510
-0.030500 0.154655 0.030510
-0.028250 0.154655 0.030510
-0.027500 0.154653 0.030446
-0.026750 0.154657 0.030637
-0.025750 0.154648 0.030214
-0.024500 0.154642 0.029939
-0.025000 0.062571 0.031528
-0.027625 0.063640 0.031655
-0.032250 0.066087 0.031400
-0.037000 0.069613 0.031399
-0.038500 0.070980 0.030891
-0.037875 0.070660 0.031272
-0.039250 0.071686 0.030891
-0.038750 0.071750 0.031653
-0.040250 0.073108 0.031017
-0.039500 0.072445 0.031526
-0.040500 0.073866 0.031652
-0.041250 0.074508 0.030890
-0.042250 0.075919 0.030889
-0.041625 0.075618 0.031525
-0.042500 0.076655 0.031270
-0.042875 0.077739 0.031588
-0.044250 0.080182 0.031269
-0.044000 0.079446 0.030888
-0.044500 0.080887 0.031269
-0.044750 0.081603 0.031396
-0.045250 0.083034 0.031650
-0.045000 0.082318 0.031523
-0.045500 0.083699 0.031141
-0.045750 0.084384 0.030886
-0.045750 0.085864 0.031777
-0.046000 0.086569 0.031777
-0.046375 0.087577 0.030951
-0.046750 0.090074 0.030891
-0.046750 0.091521 0.031148
-0.046750 0.092932 0.030896
-0.046500 0.093674 0.031279
-0.046250 0.095826 0.031409
-0.046000 0.096549 0.031538
-0.045625 0.097616 0.031476
-0.045250 0.098683 0.031414
-0.044875 0.099750 0.031352
-0.044500 0.100801 0.031036
-0.043375 0.102628 0.031674
-0.042750 0.103691 0.031549
-0.042500 0.104628 0.031296
-0.042000 0.105119 0.031551
-0.042250 0.105795 0.030916
-0.041750 0.105834 0.031552
-0.041750 0.106525 0.031172
-0.041500 0.107477 0.031173
-0.041000 0.107984 0.031683
-0.041500 0.108672 0.031239
-0.046500 0.109412 0.031685
-0.045000 0.109368 0.030922
-0.042500 0.109368 0.030922
-0.041750 0.109398 0.031431
-0.054750 0.111561 0.031815
-0.057250 0.112941 0.030928
-0.056500 0.112966 0.031373
-0.055625 0.112619 0.031563
-0.058500 0.113656 0.030929
-0.057750 0.113683 0.031437
-0.059500 0.115105 0.031312
-0.058875 0.114764 0.031630
-0.060250 0.115800 0.030932
-0.059500 0.115833 0.031568
-0.060500 0.116521 0.031061
-0.059750 0.116550 0.031632
-0.060667 0.117491 0.031401
-0.061250 0.118664 0.031064
-0.061250 0.120124 0.031701
-0.061500 0.120814 0.031194
-0.061250 0.121546 0.031576
-0.061375 0.122612 0.031387
-0.061000 0.122266 0.031705
-0.061500 0.123678 0.031067
-0.060750 0.123710 0.031766
-0.061250 0.124427 0.031701
-0.060500 0.124421 0.031574
-0.010250 0.125862 0.031572
-0.009500 0.125865 0.031635
-0.008750 0.125868 0.031699
-0.010750 0.126580 0.031507
-0.009750 0.126566 0.031190
-0.008750 0.126561 0.031063
-0.007750 0.126572 0.031317
-0.007000 0.126577 0.031444
-0.011375 0.127666 0.031632
-0.010625 0.127650 0.031251
-0.009750 0.127276 0.030934
-0.005250 0.127287 0.031188
-0.004750 0.127276 0.030934
-0.003500 0.127297 0.031443
0.001250 0.127282 0.031062
-0.011500 0.128749 0.031694
-0.010750 0.128728 0.031186
-0.011500 0.129939 0.031438
-0.011000 0.129454 0.031312
-0.012500 0.130910 0.031691
-0.011750 0.130888 0.031119
-0.012500 0.131610 0.031181
-0.061000 0.132350 0.031688
-0.014250 0.133066 0.031560
-0.013625 0.132699 0.031370
-0.013000 0.132326 0.031053
-0.014750 0.133781 0.031432
-0.014000 0.133762 0.030924
-0.015500 0.134502 0.031431
-0.059375 0.135576 0.031239
-0.017500 0.135949 0.031619
-0.016625 0.135578 0.031302
-0.016000 0.135213 0.031176
-0.058500 0.136668 0.031554
-0.018500 0.136672 0.031681
-0.017750 0.136656 0.031237
-0.058250 0.137379 0.031299
-0.019583 0.137865 0.031468
-0.018667 0.137609 0.031003
-0.057250 0.138824 0.031424
-0.020500 0.138829 0.031551
-0.019750 0.138812 0.031043
-0.020750 0.139551 0.031613
-0.020000 0.139528 0.030915
-0.056250 0.140269 0.031549
-0.020625 0.140624 0.031389
-0.021250 0.141718 0.031800
-0.020500 0.141696 0.031102
-0.054500 0.142411 0.030910
-0.021500 0.142908 0.031460
-0.020750 0.142657 0.031079
-0.053500 0.143860 0.031162
-0.021750 0.143870 0.031479
-0.052750 0.144584 0.031288
-0.021750 0.144584 0.031288
-0.051625 0.145656 0.030969
-0.022250 0.146036 0.031666
-0.021750 0.145542 0.031201
-0.050500 0.146746 0.031284
-0.022500 0.146753 0.031538
-0.022000 0.146739 0.031030
-0.049500 0.147468 0.031346
-0.048500 0.148190 0.031409
-0.048000 0.148200 0.031790
-0.022625 0.147831 0.031441
-0.022000 0.148180 0.031028
-0.047500 0.148903 0.031090
-0.046750 0.148917 0.031661
-0.022500 0.148912 0.031471
-0.021750 0.148901 0.031027
-0.045750 0.149629 0.031343
-0.045000 0.149640 0.031787
-0.022500 0.149637 0.031660
-0.021750 0.149626 0.031216
-0.044500 0.150345 0.031151
-0.043750 0.150361 0.031786
-0.042750 0.151067 0.031214
-0.042000 0.151078 0.031658
-0.022375 0.150716 0.031595
-0.021625 0.150705 0.031151
-0.041250 0.151783 0.031022
-0.040500 0.151797 0.031593
-0.022500 0.151795 0.031530
-0.021750 0.151783 0.031022
-0.039500 0.152504 0.031021
-0.038750 0.152516 0.031529
-0.022750 0.152511 0.031338
-0.037250 0.153230 0.031274
-0.036750 0.153236 0.031528
-0.034750 0.153947 0.031082
-0.034000 0.153951 0.031273
-0.033000 0.153962 0.031780
-0.025500 0.153962 0.031780
-0.024750 0.153950 0.031273
-0.023667 0.153468 0.031189
-0.029500 0.154663 0.030891
-0.028750 0.154668 0.031144
-0.028750 0.064015 0.031909
-0.029750 0.064798 0.032797
-0.031000 0.065470 0.032416
-0.033500 0.066836 0.031908
-0.034250 0.067585 0.032416
-0.033750 0.067618 0.032797
-0.036250 0.068951 0.031908
-0.035625 0.068642 0.032416
-0.035000 0.068290 0.032416
-0.036500 0.069711 0.032542
-0.037250 0.070372 0.032034
-0.038250 0.071847 0.032796
-0.039000 0.072530 0.032542
-0.039875 0.073582 0.032478
-0.040500 0.074629 0.032351
-0.041250 0.076065 0.032669
-0.041000 0.075329 0.032288
-0.042000 0.076718 0.032033
-0.042250 0.077444 0.032287
-0.043250 0.078844 0.032160
-0.043500 0.079579 0.032541
-0.043875 0.080642 0.032605
-0.044250 0.081704 0.032668
-0.044625 0.082746 0.032477
-0.045000 0.083799 0.032414
-0.045375 0.084841 0.032223
-0.044750 0.084534 0.032795
-0.045000 0.085239 0.032795
-0.046250 0.088760 0.032416
-0.046375 0.089816 0.032227
-0.046500 0.090872 0.032038
-0.046250 0.091614 0.032421
-0.046375 0.092657 0.032041
-0.046000 0.092346 0.032676
-0.046000 0.093755 0.032424
-0.046250 0.094433 0.031916
-0.046000 0.095165 0.032172
-0.045750 0.095879 0.032173
-0.045500 0.096610 0.032428
-0.045250 0.097324 0.032429
-0.045000 0.098037 0.032430
-0.044750 0.098768 0.032686
-0.044375 0.099821 0.032433
-0.044000 0.100875 0.032180
-0.043500 0.101598 0.032309
-0.042667 0.102795 0.032437
-0.042000 0.103762 0.032693
-0.041625 0.104805 0.032250
-0.041250 0.105872 0.032188
-0.041000 0.106586 0.032189
-0.040500 0.107550 0.032402
-0.040000 0.108051 0.032827
-0.040500 0.108724 0.032129
-0.039750 0.108764 0.032828
-0.051500 0.109434 0.032066
-0.050750 0.109445 0.032257
-0.049750 0.109478 0.032829
-0.049000 0.109478 0.032829
-0.047750 0.109467 0.032638
-0.047000 0.109441 0.032193
-0.045750 0.109427 0.031939
-0.041250 0.110191 0.032830
-0.040750 0.109686 0.032321
-0.040000 0.109463 0.032575
-0.054000 0.110876 0.032322
-0.054250 0.111604 0.032578
-0.055250 0.113010 0.032199
-0.054875 0.112660 0.032325
-0.056750 0.113714 0.032009
-0.055750 0.113727 0.032263
-0.055000 0.113738 0.032454
-0.058375 0.114788 0.032074
-0.057667 0.114687 0.032413
-0.056500 0.114458 0.032582
-0.055750 0.114465 0.032709
-0.058750 0.115879 0.032457
-0.059000 0.116599 0.032585
-0.060500 0.118001 0.032079
-0.059875 0.117666 0.032523
-0.060500 0.118731 0.032398
-0.060625 0.119799 0.032368
-0.060750 0.120865 0.032274
-0.060500 0.121591 0.032529
-0.060500 0.122772 0.032254
-0.060000 0.123741 0.032464
-0.061000 0.125159 0.031954
-0.011000 0.125192 0.032716
-0.010000 0.125187 0.032589
-0.061250 0.125901 0.032461
-0.060750 0.125895 0.032334
-0.011500 0.125899 0.032397
-0.010750 0.125884 0.032080
-0.061500 0.126615 0.032333
-0.011750 0.126613 0.032269
-0.006500 0.126621 0.032460
-0.006000 0.126626 0.032587
-0.012375 0.127698 0.032394
-0.011875 0.127682 0.032013
-0.001250 0.127346 0.032586
-0.000750 0.127352 0.032713
0.000250 0.127339 0.032416
-0.013250 0.128791 0.032710
-0.012500 0.128772 0.032266
-0.061500 0.129511 0.032709
-0.013500 0.129511 0.032709
